# .PCD v0.7 - Point Cloud Data file format
VERSION 0.7
FIELDS x y z
SIZE 4 4 4
TYPE F F F
COUNT 1 1 1
WIDTH 536
HEIGHT 1
VIEWPOINT 0 0 0 1 0 0 0
POINTS 536
DATA ascii
-0.0080243647 -0.0053596729 0.0022196968
-0.0060454998 -0.0053987624 0.0016504903
-0.003663087 -0.0054736068 0.001479386
-0.0011836826 -0.0054512597 0.0010312764
0.0012984172 -0.0054595568 0.0010712811
0.0036875096 -0.0053963624 0.001330957
0.0062172012 -0.0054209284 0.0015923503
0.0079871425 -0.0054175807 0.00216584
-0.0080932993 -0.0041122315 0.0020685757
-0.0063729584 -0.0036478173 0.0012736941
-0.0036230229 -0.0036115346 0.00042845169
-0.0011045546 -0.0036292362 6.8115936e-05
0.0013093613 -0.0039565451 8.4359453e-05
0.0039940448 -0.0036991085 0.00050415611
0.0062791156 -0.003796764 0.0012454286
0.0083072847 -0.0038466905 0.0021893859
-0.0081773056 -0.0013186234 0.0021176895
-0.006536012 -0.0011058412 0.0013409262
-0.0039770459 -0.0011484177 0.00050159579
-0.0009149547 -0.0011240132 5.2223466e-05
0.0010777834 -0.0010783201 6.2817882e-05
0.0038893714 -0.0015176842 0.00048041361
0.0062833987 -0.001075797 0.0012359924
0.0082217921 -0.0011823195 0.0021413751
-0.0084001152 0.0018141158 0.0022398471
-0.0063294689 0.0010899048 0.0012591879
-0.0033394457 0.0011705402 0.00035055442
-0.00097725342 0.001360241 5.6362202e-05
0.0010628683 0.0015225331 6.3090229e-05
0.0038159881 0.0010197539 0.00046570797
0.0063341344 0.0010773963 0.0012597063
0.0083011519 0.0012766616 0.0021863475
-0.0081423344 0.0040086722 0.002098263
-0.0064296531 0.0036428988 0.0012969405
-0.0039594616 0.0038660117 0.00049336662
-0.0013225856 0.0037953872 7.9117941e-05
0.0011845108 0.003435408 6.8321686e-05
0.0038234906 0.0039802836 0.00046841844
0.006317894 0.003737672 0.0012482207
0.0080452487 0.0035904292 0.0020474903
-0.0082797622 0.0051895743 0.0021731595
-0.0063328119 0.0054458119 0.0017556049
-0.003560774 0.0054903971 0.0014580016
-0.001069947 0.0054626931 0.001065387
0.0010195404 0.0053657261 0.00076003151
0.0036507971 0.0054547153 0.001240481
0.0059879543 0.0054727476 0.0018129417
0.0083856927 0.0052216714 0.0022356282
-0.010880921 -0.0055 0.0043346104
-0.0086085647 -0.0054820562 0.0038465417
-0.0062755435 -0.0055 0.004024256
-0.0037549669 -0.0055000018 0.0038946357
-0.0012949816 -0.0055000018 0.0035414831
0.0012503418 -0.0055000009 0.0035843302
0.0039583538 -0.0055000014 0.0036918011
0.0065560634 -0.0055000009 0.0037352706
0.0087017445 -0.0055000023 0.0038149536
0.010982778 -0.0053643235 0.0043515298
-0.01093055 -0.0037067144 0.0040146974
-0.0094658695 -0.0041436492 0.0029004088
0.0095583554 -0.0038176931 0.0029545927
0.01119437 -0.0037912473 0.0042419564
-0.011086002 -0.0013054857 0.0041469526
-0.0092000579 -0.0012996775 0.0027267556
0.0095234858 -0.0011445046 0.0029380138
0.010998776 -0.0010947853 0.0040786215
-0.011117153 0.0014639349 0.0041748253
-0.0092794746 0.00114539 0.0027773455
0.009516025 0.001277281 0.0029381369
0.010998756 0.0010213798 0.0040863906
-0.011085182 0.0039710933 0.0041525899
-0.0093517527 0.0034718702 0.0028252716
0.0094383368 0.0032711483 0.0028677227
0.010942817 0.0037381847 0.0040345071
-0.010513489 0.005497267 0.0042709173
-0.008848507 0.0054769721 0.0038583216
-0.0061966912 0.0055000014 0.0037292116
-0.0036844485 0.0055000023 0.0038450251
-0.0012490217 0.0055 0.0037961619
0.0013285654 0.0055000023 0.0038727063
0.0038774535 0.0055000009 0.0038522684
0.0062374533 0.0055000009 0.0034401775
0.0086263129 0.005451831 0.0035220243
0.010872248 0.0053651077 0.004283072
-0.013279379 -0.0053708148 0.0067670387
-0.011205271 -0.0055000018 0.0063737105
-0.0091390815 -0.0055000009 0.0060405359
-0.0059896968 -0.0055000014 0.0062733321
-0.0035117443 -0.0055000014 0.0064007132
-0.0010307141 -0.0055000023 0.0064495825
0.0011235343 -0.0055000018 0.0061541032
0.0037290081 -0.0055000014 0.0063743447
0.0062435479 -0.0055000009 0.0063854423
0.0088088885 -0.0055000014 0.0060271528
0.011221368 -0.0054947296 0.0060993764
0.013335551 -0.0053157127 0.0066411369
-0.013292809 -0.0038567737 0.0064519118
-0.012337141 -0.0037166744 0.0053281961
0.012298952 -0.0037631395 0.0052860631
0.013390779 -0.0036366596 0.006578709
-0.013171977 -0.0012885402 0.0062932638
-0.012263361 -0.0013965627 0.0052467962
0.012211639 -0.00098426593 0.0051897322
0.013368355 -0.0011377826 0.0065485318
-0.013296884 0.0013998094 0.0064648422
-0.012328556 0.0015841335 0.0053187241
0.01228464 0.00099749444 0.0052702725
0.013355217 0.0014522402 0.0065248264
-0.013364295 0.0038465082 0.0065387487
-0.012396578 0.0046062674 0.0053937733
0.012272283 0.0032999956 0.0052566398
0.013406249 0.0038584275 0.0065946244
-0.013228121 0.0053959531 0.0067931148
-0.011517525 0.005491944 0.006268647
-0.008880741 0.0055000018 0.0062993867
-0.0063962289 0.0055000018 0.0061161439
-0.0033301837 0.0055000014 0.0064821318
-0.0011377523 0.0055000014 0.0064283484
0.0012645908 0.0055000018 0.0064411019
0.0036754708 0.0055000018 0.0060255048
0.0065308465 0.0055000014 0.0061391834
0.0086471746 0.0055000014 0.0059199715
0.011408298 0.0054923105 0.006307187
0.01329018 0.005388685 0.006914515
-0.015254466 -0.0054331981 0.0095470715
-0.013860135 -0.0054664891 0.0089196116
-0.011463466 -0.0055000004 0.0088193342
-0.0086267004 -0.0055000014 0.0087225446
-0.0061247912 -0.0055000028 0.0087856604
-0.0035697019 -0.0055000018 0.0087882727
-0.0011456585 -0.0055000009 0.0086508999
0.0014690893 -0.0055000009 0.0087557174
0.0036850716 -0.0055000014 0.0086295651
0.0062374328 -0.0055000018 0.0088785812
0.0087108128 -0.0055000014 0.0086651556
0.011435173 -0.0055000009 0.0091912653
0.01372808 -0.0054790387 0.008669829
0.015183197 -0.0054743909 0.0094018066
-0.015128755 -0.0038904904 0.0092739202
-0.01450741 -0.0040090866 0.0081773615
0.014454397 -0.0034462661 0.0080881808
0.015232589 -0.0034556142 0.0094934609
-0.015222938 -0.00099570106 0.0094730528
-0.014536839 -0.0011626956 0.0082263332
0.014698124 -0.0014386452 0.008494799
0.015175625 -0.0013800642 0.0093730194
-0.015267196 0.0011071044 0.0095666284
-0.014484289 0.00093176338 0.0081380494
0.014640274 0.0016992983 0.0083982842
0.015195652 0.0011702954 0.0094153611
-0.015202047 0.0040849573 0.0094288839
-0.014542107 0.0037034131 0.0082345065
0.014493651 0.0035338381 0.0081542227
0.015201959 0.0032277652 0.0094286967
-0.015246711 0.0053923 0.0099079227
-0.013851275 0.0054475288 0.0085159987
-0.011210773 0.0055000018 0.0087071368
-0.0086736297 0.0055000014 0.0089170048
-0.0064893165 0.0055000004 0.0087535847
-0.0037742688 0.0055 0.00909968
-0.0010962731 0.0055000014 0.0085438918
0.0015139 0.0055000014 0.0086876377
0.0036467398 0.0055000018 0.0085977009
0.0062121237 0.0055000004 0.0084953001
0.0089368299 0.0055000014 0.0089116646
0.011121015 0.0055000004 0.0089362115
0.01374239 0.0054312763 0.0084771905
0.015304145 0.0052699335 0.0096447514
-0.015613224 -0.0054947655 0.011631541
-0.013940949 -0.0055000009 0.011178179
-0.011196665 -0.0055000018 0.011245408
-0.0088132955 -0.0055000018 0.011178705
-0.0064393282 -0.0055000014 0.010959946
-0.0040603261 -0.0055000014 0.011363232
-0.001508605 -0.0055000014 0.01141649
0.0012217609 -0.0055000018 0.011503321
0.0041470127 -0.0055000018 0.01134279
0.0061648567 -0.0055000018 0.011229061
0.0090522422 -0.0055000014 0.010980649
0.011359669 -0.0055000018 0.011150031
0.013882231 -0.0055000009 0.011200862
0.015753889 -0.0054333955 0.011478689
-0.015941525 -0.0037258223 0.011183218
0.016045311 -0.0037254149 0.011478096
-0.015932167 -0.0012944429 0.011141748
0.015960595 -0.0015175495 0.011228834
-0.015944138 0.0011717504 0.011200151
0.015924487 0.0011361793 0.011112119
-0.015859665 0.0037504032 0.010949963
0.015871052 0.0037709072 0.011005053
-0.015694682 0.0054350253 0.011628693
-0.013800958 0.0055000018 0.011214525
-0.011319754 0.0055000014 0.011057709
-0.0089123957 0.0055 0.011665678
-0.0062671434 0.0055000009 0.011542313
-0.0037479613 0.0055000014 0.011213059
-0.0011361913 0.0055000009 0.011220687
0.0011315246 0.0055000014 0.011527945
0.0041220034 0.0055 0.011216332
0.0062964722 0.0055000014 0.010959681
0.0087268064 0.0055000018 0.011174533
0.010761928 0.0055000018 0.011410915
0.013966252 0.0055000009 0.011202534
0.015867932 0.0053824922 0.011573217
-0.015913997 -0.0054645976 0.01335826
-0.013560773 -0.0055000009 0.014004602
-0.011310774 -0.0055000004 0.013509455
-0.0088526066 -0.0055000009 0.014026467
-0.0062284493 -0.0055000014 0.013487629
-0.0038114316 -0.0055000014 0.013702558
-0.0010169119 -0.0055000018 0.013805445
0.00081207912 -0.0055000004 0.013787149
0.0040143454 -0.0055000014 0.013856936
0.006350995 -0.0055000014 0.013786301
0.0087662479 -0.0055000009 0.013854318
0.011614787 -0.0055000014 0.013928555
0.013882281 -0.0055000023 0.0138448
0.016096441 -0.0054121423 0.013619103
-0.016676014 -0.0037403174 0.013836278
0.016643355 -0.0037710345 0.013647644
-0.016667046 -0.0013572295 0.013840523
0.016654393 -0.0012580754 0.013749789
-0.016659396 0.0015714028 0.013787803
0.016679341 0.0012944425 0.013901479
-0.016647587 0.0033500707 0.013685171
0.016642576 0.00342736 0.013712198
-0.016166082 0.00541795 0.013818441
-0.013946724 0.0055 0.013641195
-0.011157786 0.0055000014 0.013405917
-0.0088644512 0.0055000009 0.013744052
-0.0063143456 0.0055000018 0.013657407
-0.0038272724 0.0055000018 0.013794137
-0.0011988709 0.0055000014 0.014041333
0.0014828537 0.0055000023 0.013693621
0.0036361043 0.0055000018 0.013943961
0.00630181 0.0055000009 0.013922364
0.0090993037 0.0055000018 0.013433078
0.011168349 0.0055000014 0.013959083
0.013855397 0.0055000018 0.013817545
0.016307047 0.0054065576 0.013901357
-0.016179554 -0.0054773837 0.01602082
-0.013801855 -0.0055000018 0.01595792
-0.011551809 -0.0055000009 0.015899839
-0.0085667539 -0.0055000014 0.016362365
-0.0061028171 -0.0055000018 0.016189752
-0.0038597935 -0.0055000018 0.016156498
-0.0015870411 -0.0055 0.016394703
0.001292367 -0.0055000023 0.016314562
0.0036290591 -0.0055000018 0.016207486
0.0062914803 -0.0055000014 0.016135041
0.0088410387 -0.0055000018 0.016045386
0.011330665 -0.0055000014 0.016279196
0.013699216 -0.0055000014 0.015931634
0.016083637 -0.0054144124 0.016141532
-0.016959537 -0.0039084144 0.016227491
0.016948668 -0.0039911633 0.016185425
-0.016957695 -0.0012431418 0.016280388
0.016943021 -0.0011972686 0.015989695
-0.016964594 0.0014465672 0.016463332
0.016947359 0.0012177213 0.016144224
-0.016947765 0.0038994448 0.016029337
0.016966023 0.0036956056 0.016391845
-0.016329339 0.0054128468 0.016123103
-0.013828269 0.0055000023 0.016226532
-0.011310313 0.0055000014 0.016376827
-0.0089444788 0.0055000018 0.016129153
-0.0063072136 0.0055000014 0.016419025
-0.0040169298 0.0055 0.016421709
-0.0013769967 0.0055000018 0.016236482
0.0012037336 0.0055000014 0.016177395
0.0036209924 0.0055000009 0.016349528
0.0064024357 0.0055000023 0.016051246
0.0084192902 0.0055000014 0.016307948
0.01099338 0.0055000018 0.016277066
0.013773198 0.0055000014 0.016387319
0.016106833 0.0054501393 0.016176369
-0.015938474 -0.0054626605 0.018702164
-0.013716172 -0.0055000009 0.018754384
-0.011444112 -0.0055000014 0.018593822
-0.0086802831 -0.0055000018 0.018910211
-0.006041632 -0.0055000009 0.018837158
-0.003829537 -0.0055000014 0.018850854
-0.0010257753 -0.0055000014 0.018925419
0.0013865011 -0.0055000018 0.01892818
0.0035395345 -0.0055 0.018790409
0.006335781 -0.0055000018 0.018632002
0.0086039091 -0.0055000009 0.018944178
0.011619417 -0.0055000009 0.018781288
0.013390603 -0.0055 0.018395565
0.016274411 -0.0054366556 0.018786419
-0.016910927 -0.0035570897 0.01839046
0.016884955 -0.0038319661 0.018664578
-0.016884491 -0.00096219149 0.018688681
0.016860183 -0.001483405 0.01897672
-0.0168771 0.0012797874 0.018754339
0.016901817 0.0014905098 0.018554639
-0.016885299 0.0039295927 0.01867887
0.016909355 0.0039042914 0.018524153
-0.016138162 0.0054701259 0.018980939
-0.013605449 0.0055000009 0.018830838
-0.011448421 0.0055000014 0.01893813
-0.0087362379 0.0055000018 0.018802915
-0.0061367056 0.0055000018 0.018903689
-0.003763631 0.0055000018 0.018657716
-0.0011354333 0.0055000014 0.018721197
0.0012857511 0.0055000014 0.018579762
0.0038027498 0.0055000023 0.018509727
0.0064249663 0.0055000014 0.018747736
0.0087454943 0.0055000018 0.018679213
0.011147319 0.0055000009 0.018820141
0.013885362 0.0055000014 0.018608479
0.016114349 0.0054440233 0.018633621
-0.015686553 -0.0054948172 0.021214692
-0.013661708 -0.0055000014 0.02121073
-0.011216159 -0.0055000018 0.021412406
-0.0088470848 -0.0055000009 0.021353513
-0.0062729283 -0.0055000009 0.02115454
-0.0040075653 -0.0055000009 0.021139184
-0.0012620441 -0.0055000023 0.021381315
0.0013662742 -0.0055000018 0.021088673
0.0036182059 -0.0055000014 0.02117274
0.0061833877 -0.0055 0.021380227
0.0089943977 -0.0055000018 0.021096131
0.011257825 -0.0055000014 0.021320391
0.013589302 -0.0055 0.021267237
0.0161079 -0.0054405588 0.021252807
-0.016417602 -0.0038460931 0.021304445
0.0164435 -0.0037863282 0.021212593
-0.016458955 -0.0011905463 0.021140145
0.016499346 -0.0010049684 0.020987287
-0.016400458 0.0015440742 0.021358659
0.016442379 0.0016098726 0.0212042
-0.01645042 0.0036372044 0.021183772
0.016413497 0.0037428339 0.021303706
-0.015921656 0.005401467 0.021440124
-0.013975061 0.0055000023 0.021284102
-0.011077333 0.0055000014 0.021297021
-0.0083295582 0.0055000014 0.021295311
-0.0059851566 0.0055000009 0.0213951
-0.0038930646 0.0055000018 0.021375995
-0.0013323396 0.0055000023 0.021118555
0.0011614738 0.0055000014 0.021348676
0.003806765 0.0055000004 0.021307589
0.0062701418 0.0055000018 0.021482658
0.008579839 0.0055000018 0.021203665
0.011342842 0.0055000023 0.021370709
0.013697946 0.0055000004 0.021314941
0.016033968 0.0054029194 0.02111163
-0.015272965 -0.0054484075 0.023475563
-0.013998189 -0.0055000014 0.023595234
-0.011270607 -0.0055000004 0.023535948
-0.008566143 -0.0055000014 0.023715774
-0.0063289935 -0.0055000014 0.023646705
-0.0036947175 -0.0055000014 0.023806442
-0.0012222857 -0.0055000018 0.023640655
0.0012083545 -0.0055000018 0.023570783
0.0038419315 -0.0055000018 0.023794867
0.0063905609 -0.0055000014 0.023854507
0.0088454401 -0.0055000018 0.023636507
0.011449712 -0.0055000018 0.023880202
0.013693319 -0.0055000014 0.023518611
0.015333924 -0.0054365532 0.02341182
-0.015405106 -0.0037123321 0.024117747
0.015639819 -0.0036988582 0.02358073
-0.015540437 -0.001262854 0.023807257
0.015645711 -0.0011255714 0.023557069
-0.01557064 0.0014784229 0.023739902
0.015665032 0.0012044281 0.023529284
-0.015559054 0.0039453846 0.023771808
0.015530848 0.0038576953 0.023823235
-0.015426843 0.0053275637 0.023665091
-0.013939765 0.0055000018 0.023687862
-0.011069441 0.0055000014 0.023862533
-0.0087519595 0.0055000018 0.023725899
-0.0061818385 0.0055000014 0.023791855
-0.0037885769 0.0055000009 0.023946453
-0.0012543196 0.0055000018 0.023766568
0.0010524126 0.0055000014 0.023542903
0.0037610279 0.0055000018 0.023708165
0.0061830753 0.0055000004 0.023639379
0.0088733556 0.0055000018 0.02356771
0.011373082 0.0055000018 0.023719365
0.01362098 0.0055000009 0.023858894
0.01528995 0.0055 0.023502255
-0.013762958 -0.0054408698 0.026041463
-0.011177029 -0.0055000014 0.026300779
-0.0085949982 -0.0055000018 0.026023936
-0.0060454127 -0.0055000014 0.025982091
-0.0037818647 -0.0055000014 0.026279526
-0.0011463142 -0.0055000023 0.026272343
0.0011835919 -0.0055000018 0.026122887
0.0035955512 -0.0055000014 0.026255462
0.0062942239 -0.0055000018 0.026289755
0.0089179752 -0.0055000018 0.026255792
0.011353847 -0.0055000023 0.026313448
0.013796021 -0.0053860126 0.025914028
-0.014064527 -0.0041349973 0.026476061
0.014305199 -0.0037984883 0.026113298
-0.014115299 -0.0017860864 0.02640911
0.014092707 -0.0012743544 0.02645985
-0.014153109 0.0013895998 0.026352473
0.014093589 0.0012807015 0.026434287
-0.014050017 0.003400357 0.026492892
0.014292723 0.0036529137 0.026140083
-0.013809678 0.0054601133 0.026158094
-0.01102842 0.0055000014 0.026032967
-0.008368155 0.0055000009 0.026564136
-0.0061111092 0.0055000009 0.026104609
-0.0037120392 0.0055000018 0.026318176
-0.0010145258 0.0055000018 0.026300278
0.0014037052 0.0055000018 0.026355468
0.0037931914 0.0055000014 0.026485939
0.0063073728 0.0055000023 0.026284503
0.0085093761 0.0055000014 0.026231945
0.011445926 0.0055000018 0.025970167
0.013523726 0.005479252 0.025714135
-0.012716487 -0.0052888999 0.02825327
-0.011274875 -0.0054509281 0.028602069
-0.0088734692 -0.0055000014 0.028528214
-0.006091713 -0.0055000009 0.028679928
-0.003918916 -0.0055000018 0.028875958
-0.00095429388 -0.0055000014 0.028588537
0.0010869551 -0.0055000014 0.028463459
0.0038937216 -0.0055000014 0.028997408
0.0062453579 -0.0055000009 0.028693404
0.0088341683 -0.0055000009 0.028694069
0.011169059 -0.005406755 0.028709495
0.012985894 -0.0054297233 0.027956044
-0.012948145 -0.003816149 0.027986437
-0.011533141 -0.0035176289 0.029454438
0.011715633 -0.0039186017 0.029283868
0.012800706 -0.0038505087 0.028159691
-0.012959389 -0.0013020908 0.027977483
-0.011909468 -0.0012760831 0.029096831
0.011667291 -0.0011408319 0.029332973
0.012969234 -0.0013140446 0.027966401
-0.012987798 0.0013487361 0.027938468
-0.011618812 0.0011499596 0.029382288
0.01180517 0.0012516187 0.02920475
0.013064856 0.00088944705 0.027854184
-0.01303854 0.0039860322 0.027889377
-0.011648394 0.0033814139 0.029344207
0.011870814 0.0037864244 0.029135954
0.012881449 0.0033503349 0.028069906
-0.012877434 0.0053202459 0.027956706
-0.01106902 0.0054407739 0.028931241
-0.0087642232 0.0055000009 0.028955957
-0.0060726167 0.0055000018 0.028562296
-0.0036848348 0.0055000014 0.02857486
-0.0011789504 0.0055000018 0.028925722
0.0010296633 0.0055000018 0.028506245
0.0036784664 0.0055000018 0.028792582
0.0065938006 0.0055000004 0.028725108
0.0085069379 0.0055000018 0.028797567
0.011084369 0.0054568215 0.028555609
0.012758696 0.0054553677 0.028009403
-0.010741832 -0.0051187919 0.030172992
-0.0087015219 -0.0054396163 0.030910078
-0.0060537369 -0.0054753865 0.031594887
-0.0038271078 -0.0055000014 0.031243838
-0.0010906407 -0.0055000014 0.031145528
0.001303015 -0.0055000018 0.031138513
0.0038677463 -0.0055000014 0.031206436
0.0062342747 -0.005481624 0.031255838
0.0086895125 -0.0054157143 0.031142088
0.010215553 -0.0053644264 0.030346408
-0.01044324 -0.003451782 0.030392703
-0.008874475 -0.0037759941 0.031462476
-0.0072278562 -0.0031627899 0.032364402
0.0072110812 -0.0034982339 0.032372333
0.0084470361 -0.0036865629 0.031710062
0.010347689 -0.0035313109 0.030463278
-0.010474908 -0.0012512748 0.03036694
-0.008667917 -0.0011011631 0.031588126
-0.0071976781 -0.0014211923 0.032378677
0.0071719354 -0.002424947 0.032390848
0.0085144173 -0.0012124701 0.031672187
0.010314508 -0.00085209927 0.030489912
-0.010509428 0.0012572807 0.030341106
-0.0087387478 0.0013699911 0.03154264
-0.0073784222 0.00087811268 0.032293189
0.0070735468 0.0018170759 0.032437384
0.0087874252 0.0011820038 0.031504143
0.010481939 0.0017346583 0.030363027
-0.010403362 0.0039940448 0.030423548
-0.0088339727 0.0037904002 0.031482533
-0.0073890444 0.0035476321 0.032288164
0.0072925389 0.0039622416 0.032333806
0.008483883 0.0037442413 0.031699367
0.010503778 0.0040375544 0.030346358
-0.010353767 0.0051701381 0.03042718
-0.0087195206 0.0054148682 0.030922953
-0.0061914148 0.0054579806 0.031593576
-0.0039717681 0.0055000018 0.031264033
-0.0014059512 0.0055000018 0.031274751
0.0010914755 0.0055000014 0.030840797
0.0040908405 0.0055000018 0.031170838
0.0064187702 0.0054696398 0.031386003
0.008750584 0.0054410528 0.03094182
0.010367245 0.0053312513 0.030327158
-0.0060859313 -0.0052519254 0.032772094
-0.0038515562 -0.0054518492 0.03307458
-0.0014518383 -0.0054437825 0.033165123
0.0011656485 -0.0054653385 0.033143036
0.0037764807 -0.005392639 0.033218358
0.0059092524 -0.0053104162 0.032806199
-0.0059842309 -0.0038990944 0.032886464
-0.0036736114 -0.0039184527 0.033566609
-0.0011426902 -0.0038539309 0.033934627
0.0012658376 -0.0038428528 0.033925332
0.0037388534 -0.0039348667 0.033560351
0.0060290764 -0.0038980336 0.032876186
-0.005903481 -0.0008016135 0.032916505
-0.0036514765 -0.0014836899 0.033576924
-0.0012024511 -0.0012971761 0.033927385
0.0012157701 -0.0015719291 0.033926878
0.0035598669 -0.0012873471 0.033592761
0.0059305662 -0.0011950763 0.03290819
-0.0058383634 0.0015316216 0.032940619
-0.0039452091 0.0013094292 0.033508528
-0.0012580602 0.0011855178 0.033926062
0.0012853905 0.0013981599 0.033922486
0.0036398629 0.001204634 0.033577528
0.0060762316 0.00093429041 0.032849699
-0.005776884 0.0036125556 0.032963369
-0.0036395898 0.0040508662 0.033573132
-0.00095872971 0.003873403 0.033949073
0.00096410484 0.0036432131 0.033947963
0.0035373759 0.0037136837 0.033595454
0.005946713 0.0037326969 0.03290534
-0.0057056448 0.0052204207 0.032992218
-0.0038319668 0.0054568229 0.033181053
-0.001384802 0.0054755113 0.033255707
0.0011597663 0.0054564825 0.03352936
0.0037433035 0.0054847156 0.033152808
0.005505472 0.0053305179 0.032955643
