# .PCD v0.7 - Point Cloud Data file format
VERSION 0.7
FIELDS x y z
SIZE 4 4 4
TYPE F F F
COUNT 1 1 1
WIDTH 575
HEIGHT 1
VIEWPOINT 0 0 0 1 0 0 0
POINTS 575
DATA ascii
-0.011186119 -0.0054414226 0.0014339491
-0.0088617606 -0.0054432759 0.0014960954
-0.0063928897 -0.0054705511 0.0014345441
-0.0037091989 -0.0054337019 0.0015659228
-0.0018732662 -0.005284518 0.002239123
0.001747492 -0.0053620432 0.0022778045
0.0040258863 -0.0054679629 0.0016058738
0.0063256402 -0.0054125222 0.0010733227
0.0086033838 -0.0054909624 0.00097774039
0.011112623 -0.0053828312 0.0012505666
0.012839519 -0.0053248741 0.0020679974
-0.013044342 -0.0035993555 0.002107895
-0.01157366 -0.0035611859 0.0010956741
-0.0087466817 -0.0036479027 0.00014907013
-0.0066415751 -0.0039063259 9.6160285e-05
-0.0037197084 -0.0037401305 0.00096932251
-0.0020948742 -0.0038678956 0.0019926457
0.0021059713 -0.0038174368 0.0019835359
0.0035650353 -0.0037841962 0.0010403267
0.0061996253 -0.0034063195 0.00017842527
0.0091369003 -0.0038686777 0.00022826641
0.01125313 -0.0038242722 0.00094598654
0.013156784 -0.0036161181 0.0022002612
-0.013008579 -0.0012986052 0.0020785164
-0.011387607 -0.0012344188 0.0010105675
-0.0088547496 -0.0014445152 0.00017585073
-0.0065455795 -0.00085593911 0.00011932594
-0.0037149487 -0.0010381959 0.00096020132
-0.0018844286 -0.0014283382 0.0021653962
0.0020591679 -0.0012568437 0.002021956
0.0039637699 -0.0010759166 0.00083598006
0.0063914317 -0.0014540742 0.00013314463
0.0090101874 -0.0012458932 0.0001964103
0.011390394 -0.001423094 0.001011785
0.012932559 -0.0016105764 0.0020160701
-0.012972073 0.0013404245 0.0020485285
-0.011206971 0.0012328819 0.00091949035
-0.0089929523 0.0013453653 0.00018943995
-0.0061500701 0.0014436375 0.00016200013
-0.0037019844 0.0011485439 0.00096934952
-0.0018550912 0.0011142598 0.0021894784
0.0018949573 0.00086097402 0.0021567531
0.0037519066 0.0013947424 0.00094801211
0.0059829582 0.0011332538 0.00019088248
0.0087986086 0.00090542581 0.00014487329
0.011347 0.0011739314 0.00098932208
0.01287542 0.0010782074 0.0019691328
-0.012876743 0.0036806569 0.0019702197
-0.011508615 0.0036583277 0.0010844077
-0.0087409038 0.0036975031 0.00015702125
-0.0061502787 0.003652036 0.00016725213
-0.0035983657 0.0039427066 0.0010172954
-0.0019111766 0.0042100963 0.0021434394
0.0020229772 0.0038398474 0.0020516645
0.003569728 0.0039323256 0.0010321331
0.0062661706 0.0037644224 0.00015351208
0.0090038674 0.0036799556 0.00020050119
0.011115928 0.003781545 0.00087568449
0.013032673 0.00417647 0.0020983093
-0.012888341 0.0053384877 0.0021048111
-0.011224191 0.0053928508 0.0014916859
-0.0087451255 0.0054155821 0.0011509946
-0.0062662517 0.0054113083 0.001088143
-0.0038163292 0.0054222667 0.0015000048
-0.002188117 0.005350241 0.0020720859
0.0023119769 0.0052323001 0.001868365
0.0037341809 0.0053446963 0.0013870767
0.0062507954 0.0054794461 0.0013665543
0.0086614247 0.0054593487 0.00095489284
0.011127492 0.0054432349 0.0014399651
0.012760825 0.0055 0.0019522565
-0.015055574 -0.0054619182 0.0046918602
-0.013824812 -0.0054613519 0.0040632789
-0.011403887 -0.0054996801 0.0040354505
-0.008482282 -0.0054996796 0.0035835563
-0.0062416233 -0.005499681 0.0036445556
-0.0038094476 -0.0054996805 0.0038112041
-0.0011524758 -0.0054404838 0.0039871121
0.0013193877 -0.0054453416 0.0038133296
0.0038259595 -0.005499681 0.0038498945
0.0063260766 -0.005499681 0.0037722732
0.0085530877 -0.005499681 0.0035335624
0.011431293 -0.0054996805 0.0037716741
0.013636352 -0.0054476149 0.0038862452
0.015091199 -0.0051221312 0.0047585741
-0.015088152 -0.0028033108 0.0047528669
-0.014364347 -0.0037443461 0.0035857924
-0.00070291484 -0.0037889665 0.0035047464
0.00072084757 -0.0038189297 0.0034695875
0.014256512 -0.0037840388 0.0034316559
0.015119813 -0.0038497052 0.0048121559
-0.015055535 -0.0015280977 0.0046917885
-0.014233006 -0.0011319796 0.0034032403
-0.0007176192 -0.0012930308 0.0035056942
0.00069324521 -0.001007369 0.0035251067
0.014266352 -0.0013963161 0.0034538549
0.01507443 -0.0013519333 0.0047271713
-0.015097046 0.00015931134 0.0047695208
-0.014271941 0.0011393827 0.0034609949
-0.00058370281 0.00094449811 0.0036686868
0.00052438758 0.0014251273 0.0037709237
0.014465247 0.0011583348 0.0037231673
0.015154568 0.00082248705 0.0048772376
-0.0151381 0.0037369679 0.0048463978
-0.014318002 0.0039072372 0.0034973761
-0.00063384476 0.0036013552 0.0035852389
0.00071959372 0.0035818126 0.0034914378
0.0142812 0.0035429448 0.0034845774
0.015128102 0.0034330036 0.0048276768
-0.015082589 0.0051084394 0.0047424505
-0.013619806 0.0054292222 0.0035872187
-0.011157474 0.0055000014 0.0037650671
-0.0087631904 0.0055000018 0.003893117
-0.0064263744 0.0055000014 0.0037654396
-0.0037278694 0.0055000004 0.0035711774
-0.0012684807 0.0054258243 0.0037958366
0.0014915715 0.0054716081 0.003709204
0.0036398289 0.0055000009 0.003837191
0.0062316437 0.0055000014 0.0035506319
0.0090167951 0.0055000009 0.0039699865
0.011148643 0.0055000014 0.0033891695
0.013853148 0.0053938008 0.0036152794
0.015067043 0.0050868671 0.0047133393
-0.015491663 -0.0054743448 0.0065724039
-0.014021876 -0.005499681 0.0059796679
-0.011000042 -0.0054996796 0.0060932231
-0.0088200569 -0.0054996805 0.0062860302
-0.0059790243 -0.0054996815 0.0060349242
-0.0038737054 -0.0054996805 0.0063045742
-0.0012652832 -0.0054996805 0.0064424966
0.00098842266 -0.0054996796 0.0059640883
0.0038137154 -0.005499681 0.0063055796
0.0063108285 -0.0054996805 0.0063133882
0.0086946329 -0.005499681 0.0063120848
0.011439972 -0.0054996805 0.0061221211
0.013685145 -0.005499681 0.0062512783
0.01537441 -0.0053862436 0.0063281101
-0.015559264 -0.0035780265 0.0060097449
0.01567702 -0.0036179251 0.0063637542
-0.015587416 -0.0015139654 0.0060886452
0.015710669 -0.0016027653 0.006536135
-0.015708284 0.0012745335 0.0065164347
0.015628288 0.0010339073 0.0062306281
-0.015487796 0.0035666625 0.0057256278
0.015676977 0.0037267748 0.006401022
-0.015403553 0.0054420158 0.0069569126
-0.013978888 0.0055000014 0.0063518952
-0.011279145 0.0055000018 0.0060796719
-0.0083527928 0.0055000014 0.006305126
-0.0063194199 0.0055000014 0.0060831876
-0.0038036963 0.0055000023 0.006397414
-0.0012887506 0.0055000004 0.0062789633
0.0011314858 0.0055000018 0.0064675678
0.0036754792 0.0055000009 0.0062187528
0.0061805043 0.0055000014 0.0063322368
0.0089788251 0.0055000009 0.0062623811
0.011125189 0.0055000018 0.0064076935
0.013834063 0.0055000018 0.0062635965
0.015359201 0.0054666367 0.0069185854
-0.015565351 -0.0054625045 0.0090353033
-0.013773382 -0.0054996801 0.0085787904
-0.011410895 -0.0054996815 0.0088090757
-0.0089217937 -0.0054996815 0.008668174
-0.0065085464 -0.0054996805 0.0088052182
-0.0038041645 -0.005499681 0.008475922
-0.0010764975 -0.0054996801 0.0086117927
0.0015436434 -0.0054996805 0.0085907057
0.0036229091 -0.005499681 0.0087776408
0.0063305181 -0.0054996815 0.0088895131
0.0087290937 -0.0054996805 0.008466702
0.011206143 -0.0054996805 0.0087423325
0.013911676 -0.0054996815 0.0090368213
0.015792258 -0.0053318013 0.0083585018
-0.015928391 -0.0035755744 0.0087539982
0.015929744 -0.0038186691 0.0090063745
-0.015938818 -0.0013098549 0.0088868225
0.015939776 -0.0015223949 0.0086704725
-0.015935499 0.0015148871 0.0088296272
0.015945215 0.0011549405 0.0084123565
-0.015945975 0.0034151815 0.0083828885
0.015929261 0.0038157301 0.0086938161
-0.015653642 0.0053906566 0.008716003
-0.013774806 0.0055000018 0.0089269541
-0.01120384 0.0055000014 0.0086853476
-0.0086928494 0.0055000018 0.0089284051
-0.0063098921 0.0055000014 0.0088260155
-0.0037690343 0.0055000018 0.0089537902
-0.0013007801 0.0055000018 0.0088828048
0.0010056564 0.0055000014 0.0085266214
0.0035862178 0.0055 0.008697398
0.0063047591 0.0055000009 0.0083797956
0.0086967405 0.0055000014 0.008520944
0.011007759 0.0055000009 0.0086987605
0.013800388 0.0055000018 0.008480113
0.015764749 0.0053572734 0.0086724618
-0.015464315 -0.0054453681 0.010718416
-0.013902764 -0.005499681 0.01115593
-0.011132067 -0.0054996805 0.01138383
-0.008629133 -0.005499681 0.011100264
-0.0064599426 -0.005499681 0.011538612
-0.0038244014 -0.0054996796 0.011114139
-0.0014220183 -0.005499681 0.011305643
0.0012710114 -0.005499681 0.011496417
0.0037761289 -0.0054996801 0.01130209
0.0060898787 -0.0054996815 0.01132301
0.0087964572 -0.0054996805 0.011542888
0.011216551 -0.005499681 0.011269192
0.013553386 -0.0054996805 0.011003844
0.015374077 -0.0054126279 0.011078431
-0.015492971 -0.0038429103 0.011202002
-0.014979333 -0.0048647043 0.012451524
0.015515354 -0.0037603292 0.01113416
-0.01541837 -0.0013799024 0.011427785
-0.014995828 -0.0019788416 0.012420637
0.015577449 -0.001390976 0.010966018
-0.0155175 0.0012334853 0.011155665
-0.01497886 0.00057435979 0.012452411
0.014968449 0.00056064385 0.012471903
0.015514094 0.0012868026 0.01115554
-0.015482242 0.003735899 0.011251051
-0.014993187 0.0025023795 0.012425583
0.014971763 0.0026876645 0.012465701
0.015404708 0.0041257152 0.011489668
-0.015254997 0.0054336172 0.010859154
-0.013819342 0.0055000009 0.011183482
-0.011312254 0.0055000009 0.011593499
-0.0086135883 0.0055000023 0.011424989
-0.0061486522 0.0055000004 0.011123614
-0.0038340846 0.0055000009 0.011189066
-0.0012993276 0.0055000014 0.01128797
0.0015699986 0.0055000018 0.011072961
0.0038204598 0.0055000018 0.011278694
0.0062995432 0.0055000018 0.011005453
0.0092456024 0.0055000004 0.011192055
0.011216967 0.0055000018 0.011494898
0.013833371 0.0055000014 0.011144444
0.015450618 0.0053303116 0.010770187
-0.013456441 -0.0054661236 0.013740843
-0.01135968 -0.005499681 0.013776142
-0.0089290831 -0.0054996801 0.013894332
-0.0065381108 -0.0054996805 0.014022673
-0.0038129205 -0.005499681 0.013511609
-0.0010343248 -0.005499681 0.013745759
0.001180227 -0.005499681 0.013859225
0.0037911648 -0.0054996801 0.013942798
0.0062117288 -0.0054996815 0.01352225
0.0087767048 -0.0054996801 0.013571348
0.011325705 -0.0054996815 0.013925369
0.013867456 -0.0053532585 0.013485392
-0.013932693 -0.0036635459 0.013967635
0.014059024 -0.0038498349 0.013786566
-0.014072264 -0.0013639658 0.01380082
0.014104835 -0.0010548154 0.013712619
-0.014040689 0.0012453744 0.013803067
0.014028993 0.0013101435 0.013821808
-0.014044087 0.0037513718 0.01379551
0.013954 0.003687124 0.013917725
-0.013445374 0.005460504 0.013691165
-0.011153904 0.0055000009 0.013866425
-0.0085470825 0.0055000014 0.013708274
-0.006573488 0.0055000009 0.013617213
-0.0036012307 0.0055000023 0.013937981
-0.001315059 0.0055000023 0.013597172
0.0013325743 0.0055000014 0.013787013
0.003683591 0.0055000018 0.013821012
0.0063583576 0.0055000014 0.013921382
0.0089786472 0.0055000014 0.013830809
0.011767827 0.0055000014 0.013466124
0.013478715 0.0054150075 0.013632835
-0.012669081 -0.0054951524 0.016599214
-0.011002614 -0.0054616025 0.016263586
-0.008678237 -0.0054996805 0.016488571
-0.0061510862 -0.005499681 0.016167855
-0.0036148003 -0.005499681 0.016435944
-0.0013693896 -0.005499681 0.016295496
0.0011260415 -0.0054996805 0.016166903
0.0037585178 -0.005499681 0.016382594
0.0061243866 -0.0054996815 0.01626653
0.0087331599 -0.0054996801 0.016197639
0.011353183 -0.0054436247 0.016307486
0.012785092 -0.0052699889 0.016514705
-0.012862629 -0.0037887758 0.016287543
-0.012161452 -0.0037204032 0.015914489
0.011956406 -0.0035881342 0.015899282
0.013059189 -0.003824082 0.016786538
-0.01290795 -0.0012655273 0.016231978
-0.011804672 -0.0012707469 0.015916148
0.011966164 -0.0012851234 0.016092274
0.012973973 -0.0014386098 0.016765952
-0.01290836 0.0012634303 0.016370244
-0.011923367 0.0012223966 0.015994145
0.011955841 0.0014218934 0.015917908
0.012830379 0.0012379133 0.016408892
-0.013039296 0.0037957276 0.016398327
-0.011951989 0.0038604047 0.015986515
0.011958093 0.0037579557 0.015905721
0.0128122 0.0039181947 0.016787134
-0.012828939 0.0052658832 0.016146682
-0.01142122 0.0054848194 0.016253594
-0.008369131 0.0055000009 0.015963031
-0.0061707986 0.0055000014 0.016047969
-0.0035424531 0.0055000014 0.01648619
-0.0015101867 0.0055000014 0.016475523
0.0011244913 0.0055000014 0.016443543
0.0036786061 0.0055000014 0.016218469
0.0059723663 0.0055000014 0.0165132
0.0085921306 0.0055000018 0.016233025
0.011490161 0.005469033 0.016122475
0.012830476 0.0054936246 0.016952353
-0.013772226 -0.0054412005 0.01882389
-0.011433753 -0.005499681 0.018624529
-0.008838011 -0.0054996801 0.018715153
-0.0062522562 -0.0054996815 0.01880618
-0.0036575422 -0.005499681 0.018784551
-0.0014078509 -0.0054996815 0.018739128
0.0011019517 -0.0054996815 0.018492416
0.0038152034 -0.005499681 0.018904198
0.0061273742 -0.005499681 0.01888163
0.0087491022 -0.0054996815 0.01869509
0.011200552 -0.005499681 0.018522657
0.013799747 -0.0053909896 0.018749997
0.015037565 -0.0051488727 0.019657519
-0.015105132 -0.0045024469 0.019784046
-0.014234787 -0.003768282 0.018388171
0.014248203 -0.0038213751 0.018424112
0.015126681 -0.003897008 0.019824397
-0.015136857 -0.001575229 0.019843452
-0.014290987 -0.00083299039 0.018486751
0.014265183 -0.0012187911 0.018461147
0.015122309 -0.00048566738 0.019816209
-0.015118771 0.001403669 0.019809583
-0.014337007 0.00089197169 0.018570857
0.014277582 0.0015613592 0.018475397
0.015112936 0.0015754293 0.019798661
-0.01516656 0.0048811501 0.019899074
-0.014237213 0.0033849471 0.018412935
0.014207154 0.0038875579 0.01838154
0.015068091 0.0035354819 0.019714681
-0.013723532 0.0054425513 0.018600777
-0.01126917 0.0055000018 0.018721713
-0.0091641406 0.0055000009 0.018760029
-0.0063095046 0.0055000009 0.018789798
-0.0036584621 0.0055000018 0.019072656
-0.0010323902 0.0055000018 0.018922623
0.0012125459 0.0055000009 0.018537814
0.0036366952 0.0055000004 0.018696619
0.0062355204 0.0055000014 0.018530486
0.0083950032 0.0055000014 0.018679304
0.011164324 0.0055000018 0.018806685
0.013556683 0.0054458212 0.018695924
0.01504543 0.0055 0.019787945
-0.015471232 -0.0054617599 0.021727322
-0.013542062 -0.0054996805 0.02155653
-0.011480533 -0.0054996819 0.021216968
-0.0084228301 -0.005499681 0.021588871
-0.0063099167 -0.005499681 0.021308178
-0.0037918005 -0.005499681 0.021216312
-0.0015441102 -0.005499681 0.021078058
0.0014325931 -0.0054996801 0.021024467
0.0041110255 -0.005499681 0.021276299
0.0061935876 -0.0054996815 0.020976206
0.0089463657 -0.0054996815 0.021348678
0.010806175 -0.0054996801 0.02126072
0.013742992 -0.0054996815 0.021546334
0.01548763 -0.0054197656 0.021401826
-0.015650876 -0.0035853642 0.021348596
0.015612508 -0.0038489702 0.021189349
-0.015686927 -0.0013569115 0.021396704
0.01562209 -0.0013616353 0.021243321
-0.015617669 0.0010091983 0.02116284
0.015623684 0.0010678595 0.021238495
-0.01566294 0.0038805858 0.021329941
0.01570785 0.0037045954 0.021532295
-0.01548837 0.0054231491 0.021462265
-0.013610203 0.0055000014 0.021130942
-0.011384385 0.0055000014 0.021264043
-0.0084423544 0.0055000004 0.021450775
-0.0063600698 0.0055000014 0.02103457
-0.0037741535 0.0055000014 0.021469135
-0.0011884025 0.0055000009 0.021261789
0.0010918091 0.0055000018 0.021147816
0.0038057964 0.0055000009 0.021437023
0.0062287701 0.0055000014 0.02121805
0.008714701 0.0055000009 0.021165246
0.01103847 0.0055000014 0.021360749
0.013640302 0.0055000014 0.021516073
0.015423324 0.0053286892 0.021337869
-0.015776588 -0.0053294562 0.023688667
-0.013813039 -0.005499681 0.023795903
-0.011429711 -0.005499681 0.023983002
-0.0088031506 -0.005499681 0.023966925
-0.0064288853 -0.005499681 0.023969736
-0.0034347631 -0.0054996805 0.023909941
-0.0011383543 -0.0054996801 0.02353554
0.0017492825 -0.005499681 0.023670401
0.0039238995 -0.0054996819 0.023719007
0.0065131779 -0.005499681 0.023766868
0.0088613713 -0.0054996805 0.023971338
0.011325915 -0.0054996815 0.023434984
0.013659608 -0.0054996815 0.023956757
0.01560844 -0.005378501 0.023275247
-0.015955385 -0.0037622 0.023795305
0.015949363 -0.0039277147 0.023434091
-0.015936179 -0.00097833318 0.023805691
0.015937528 -0.0013218243 0.023721518
-0.01593647 0.001025259 0.023956394
0.015931789 0.0014129324 0.024036651
-0.015927656 0.0037653164 0.023957707
0.015941426 0.0039902283 0.023714073
-0.01566167 0.0054041515 0.023757819
-0.013662611 0.0055000018 0.02383291
-0.011198001 0.0055000014 0.023769392
-0.0085212486 0.0055000009 0.023583086
-0.0062516551 0.0055000004 0.023717187
-0.0035847102 0.0055000014 0.023607951
-0.0013502528 0.0055000018 0.023610534
0.0012081033 0.0055000014 0.024101438
0.0038002136 0.0055000018 0.023821615
0.006817847 0.0055000009 0.023322111
0.0085802516 0.0055000018 0.023903325
0.010941541 0.0055000018 0.023825942
0.013631602 0.0055000018 0.02386466
0.015561184 0.0054538581 0.023349313
-0.015337466 -0.0053954078 0.026030954
-0.013767481 -0.0054996805 0.026100473
-0.011252224 -0.0054996815 0.026225884
-0.0086996946 -0.0054996815 0.026483128
-0.0062147565 -0.0054996801 0.026354143
-0.0034584156 -0.0054996805 0.026313122
-0.0011749641 -0.005499681 0.02632226
0.0014249543 -0.0054996801 0.026376372
0.0039263922 -0.0054996815 0.026325721
0.006132558 -0.0054996805 0.02605751
0.0087950993 -0.0054996815 0.026086425
0.011484052 -0.005499681 0.026127454
0.013772966 -0.0054996805 0.026170168
0.015433834 -0.0054278299 0.025912555
-0.015361737 -0.0037329835 0.026578652
-0.014979495 -0.0041319542 0.027450617
-9.1337779e-06 -0.0047797747 0.027430503
5.8084461e-06 -0.004181677 0.027424274
0.015504403 -0.0039093592 0.026178468
-0.015489159 -0.0014554637 0.026212357
-0.014996708 -0.00017842953 0.027418386
0.015535275 -0.0010769722 0.026110034
-0.015430936 0.0011010518 0.02639604
-2.6070918e-05 0.0013723249 0.027462216
0.015485539 0.0013418372 0.026246391
-0.015489933 0.0039014765 0.026232626
-3.4889803e-05 0.0028974873 0.027478727
0.015547099 0.003625269 0.026067654
-0.01534665 0.0054065511 0.026030101
-0.013406088 0.0055000009 0.026274243
-0.011078376 0.0055000014 0.026328288
-0.0086538354 0.0055000018 0.026103226
-0.0063899993 0.0055000014 0.026398201
-0.0039342572 0.0055000018 0.026355499
-0.0010774584 0.0054776403 0.026473595
0.0012049146 0.0055000004 0.02606906
0.0035652374 0.0055000014 0.026410216
0.0063674985 0.0055000018 0.026192864
0.0088953003 0.0055000014 0.02610122
0.011182729 0.0055000004 0.026694475
0.013693678 0.0055000014 0.026390221
0.015419527 0.005435057 0.026047746
-0.013462719 -0.0054451562 0.028718727
-0.011310707 -0.0054996805 0.028507276
-0.0087229395 -0.005499681 0.028859979
-0.0063895127 -0.0054996805 0.028653044
-0.0034368408 -0.0054996801 0.028530084
-0.0013832254 -0.0054227579 0.028633121
0.0015642478 -0.0054712677 0.028763451
0.0040150741 -0.005499681 0.028809972
0.0062385872 -0.005499681 0.028902359
0.0085885692 -0.0054996819 0.028859027
0.01112526 -0.005499681 0.028748916
0.013360702 -0.005381248 0.028909402
-0.014125248 -0.0035844657 0.028711302
-0.00094432913 -0.0038493215 0.028788935
0.0011091959 -0.0039046276 0.028962821
0.014281503 -0.003497422 0.028513281
-0.014316504 -0.0011184174 0.028459918
-0.00081709801 -0.0015177486 0.028656263
0.00095396215 -0.0012574537 0.028843613
0.014074498 -0.001270493 0.028780328
-0.01418037 0.0011647687 0.028633321
-0.00094099226 0.0014308466 0.028784819
0.00084168126 0.0013504765 0.028678179
0.014168951 0.0011365184 0.028618788
-0.014000242 0.0039243558 0.028855985
-0.0012085414 0.0037604065 0.029108366
0.00082346838 0.0034406388 0.028645389
0.013983162 0.0035680158 0.028864764
-0.013593567 0.0053833253 0.028814491
-0.011257053 0.0055000014 0.028458595
-0.0084222453 0.0055000009 0.028701698
-0.0065690558 0.0055000009 0.028601022
-0.0036847964 0.0055000004 0.028891036
-0.0016005519 0.0054262574 0.028547093
0.001687836 0.0054340842 0.028808901
0.0037965134 0.0055000018 0.028854458
0.0064582704 0.0055000018 0.028711598
0.0088115241 0.0055000009 0.028687811
0.011516839 0.0055000018 0.02869954
0.013514156 0.0054712803 0.028470492
-0.012649835 -0.0054996656 0.030185685
-0.011248347 -0.0053271996 0.03090678
-0.0089283912 -0.0054241172 0.031083664
-0.0062203286 -0.0054652444 0.031059226
-0.0038282345 -0.00544383 0.030543407
-0.0021435022 -0.0053009493 0.030047307
0.0023739408 -0.0052230693 0.030236466
0.0039917962 -0.0054695331 0.030727386
0.0064641931 -0.0054267631 0.031089379
0.0087688109 -0.0054312102 0.031270962
0.011100912 -0.0054486305 0.030735344
-0.012737582 -0.0039368337 0.030144125
-0.011309374 -0.0037781526 0.031040141
-0.0086031277 -0.0036571242 0.031856861
-0.0061166883 -0.0035333997 0.031836845
-0.0037146304 -0.0038460009 0.031049659
-0.0022906661 -0.0038722004 0.030168109
0.0022154741 -0.0040652039 0.030106384
0.0034860894 -0.0039291116 0.030914534
0.0061161923 -0.0040580747 0.03182834
0.0087996097 -0.003318216 0.03184836
0.011297124 -0.003855339 0.031033849
0.012614055 -0.0038694569 0.0302456
-0.0127103 -0.0011514125 0.03016654
-0.011360377 -0.0011770163 0.030988058
-0.0088570928 -0.0012576935 0.031836029
-0.0063925362 -0.0011223071 0.031880438
-0.0039909785 -0.0013526878 0.03117474
-0.0022750301 -0.00081421441 0.030155271
0.002279578 -0.0010891255 0.030159006
0.0037096599 -0.0013448142 0.031045495
0.0059766555 -0.0010819605 0.031788133
0.0089343311 -0.0013363262 0.031817686
0.011276893 -0.00095255964 0.031043047
0.012740483 -0.0015464614 0.030141747
-0.012745882 0.0018293267 0.03013731
-0.011346485 0.0012527703 0.031010028
-0.0083972644 0.0015090016 0.03189829
-0.0064103054 0.001254647 0.031856753
-0.003569874 0.0010886657 0.030966423
-0.0023540927 0.001391332 0.030220171
0.0022588407 0.0016345076 0.030141985
0.0038842729 0.0017058745 0.031127263
0.0060644262 0.00087748165 0.031813983
0.0087497495 0.0015040461 0.031863168
0.011176369 0.0012304866 0.031105928
0.0127201 0.00072166661 0.03015849
-0.012755781 0.0041510463 0.030129179
-0.011093964 0.0036164701 0.031133849
-0.0084930146 0.0036683613 0.031893071
-0.0063369446 0.0037236104 0.031849358
-0.0034792179 0.0037662941 0.030927535
-0.0023790805 0.002892853 0.030240685
0.0021908395 0.0035056809 0.030086165
0.0038272589 0.0035202531 0.031092381
0.006343212 0.0037013225 0.031855118
0.0083889691 0.0036971241 0.031900588
0.011192429 0.0036569138 0.031094821
0.012706522 0.0038649738 0.030169643
-0.011041608 0.005417835 0.030694831
-0.0090726614 0.0054523489 0.031089703
-0.0063404171 0.0054204301 0.031259842
-0.0040896451 0.0054225004 0.03062414
-0.0023540738 0.0052673649 0.030220155
0.0024301491 0.0055 0.030067299
0.0038324136 0.0054344828 0.030712742
0.0063683861 0.0054567955 0.031215155
0.0089007616 0.0054815277 0.031133121
0.010757865 0.0054603275 0.030901348
0.012699693 0.0052169231 0.030175254
