# .PCD v0.7 - Point Cloud Data file format
VERSION 0.7
FIELDS x y z
SIZE 4 4 4
TYPE F F F
COUNT 1 1 1
WIDTH 532
HEIGHT 1
VIEWPOINT 0 0 0 1 0 0 0
POINTS 532
DATA ascii
-0.0056298259 -0.005835338 0.0012348178
-0.0038363293 -0.0058153528 0.00062384189
-0.0010148998 -0.0058377031 0.00077808363
0.0011573813 -0.0058666067 0.0010357647
0.0037706797 -0.0058495533 0.00083736476
0.0057544936 -0.0056374515 0.00097310275
-0.0058806869 -0.0036090494 0.0011088337
-0.003895974 -0.003601637 8.6975086e-07
-0.0014107813 -0.0038937612 8.6975081e-07
0.0012878567 -0.0038947503 8.6975092e-07
0.0038334124 -0.0038214915 8.6975103e-07
0.0058030137 -0.0039491085 0.00068964163
-0.0058178552 -0.0013290572 0.00099458871
-0.0038382444 -0.0013788434 8.6975092e-07
-0.0013490436 -0.0012035001 8.6975109e-07
0.001264328 -0.0013381159 8.6975103e-07
0.0035777921 -0.0010475133 8.6975092e-07
0.0059166611 -0.0009949602 0.0010827221
-0.0059094559 0.001307326 0.0010257227
-0.0035883565 0.0011117184 8.6975081e-07
-0.0011986857 0.001291234 8.6975092e-07
0.0013130108 0.0012890538 8.6975115e-07
0.0039221523 0.0010788775 8.6975103e-07
0.0059383451 0.0011299597 0.00093234307
-0.0058557573 0.0036317883 0.001049417
-0.003794583 0.0036890479 8.6975109e-07
-0.0011715516 0.0037149012 8.6975103e-07
0.0011189606 0.0038306913 8.6975092e-07
0.0037305087 0.003565039 8.6975103e-07
0.0057774303 0.0037134935 0.00065623468
-0.0057159727 0.0057111699 0.0010327452
-0.0040385788 0.0057900273 0.0007068502
-0.0012507073 0.0058147614 0.0010327389
0.000947227 0.0059373132 0.00082527171
0.0037193645 0.0059451065 0.00097641832
0.0057963682 0.0056751356 0.00092065008
-0.0057500578 -0.0058634062 0.00366127
-0.0036791421 -0.0059991307 0.0038017433
-0.0013593936 -0.0059991307 0.0037919204
0.0008732829 -0.0059991297 0.0036651173
0.003688985 -0.0059991311 0.0036905357
0.0056110714 -0.0057664285 0.0036643571
-0.0059991297 -0.00374673 0.003712449
0.0059999991 -0.0037929839 0.0037444993
-0.0059991307 -0.0014338718 0.0039489809
0.0059999991 -0.0009544667 0.0038129962
-0.0059991311 0.0010705031 0.0036104487
0.0059999991 0.0012916933 0.0038077855
-0.0059991311 0.0035663652 0.0039049664
0.0059999991 0.0035817011 0.0036036395
-0.0057707028 0.0057101273 0.0039335098
-0.0036814525 0.0060000005 0.0038071438
-0.0013515799 0.0059999991 0.0035935806
0.0014197461 0.0059999991 0.0037687614
0.0038097384 0.0059999991 0.0036997136
0.0057879849 0.0056656245 0.0037934321
-0.0057351249 -0.0057929815 0.0061147376
-0.0037969179 -0.0059991311 0.0063600526
-0.0013914307 -0.0059991311 0.0062065907
0.0010925281 -0.0059991307 0.0062545119
0.0039649471 -0.0059991316 0.0062499302
0.0059251292 -0.0054964027 0.0062208758
-0.0059991307 -0.0038471608 0.0064593405
0.0060000001 -0.0038666676 0.0065338137
-0.0059991316 -0.001258633 0.006151286
0.0059999996 -0.0010792868 0.0062134294
-0.0059991307 0.0011160637 0.0064185169
0.0059999991 0.0011582954 0.0060794535
-0.0059991316 0.0038408132 0.0063202064
0.0059999991 0.00398927 0.0062821507
-0.0059012338 0.0057151141 0.0061444864
-0.0038243437 0.0059999996 0.0063888971
-0.00099129905 0.0059999991 0.0063177645
0.0012030813 0.0059999991 0.0063024531
0.0040114499 0.0059999991 0.0061532981
0.0056436141 0.0057803001 0.0061319266
-0.005757953 -0.005663611 0.008786438
-0.0037266666 -0.0059991307 0.0088776592
-0.0012912956 -0.0059991297 0.0085377572
0.0013318274 -0.0059991311 0.008881704
0.00370593 -0.0059991297 0.0089912657
0.0058279759 -0.0057355366 0.0088908058
-0.0059991311 -0.003534643 0.0089787701
0.0059999991 -0.0035349415 0.0089139612
-0.0059991311 -0.0011051421 0.0088044796
0.0059999996 -0.0015688842 0.0088553447
-0.0059991311 0.001211349 0.008694604
0.0060000001 0.0013139903 0.0081637269
-0.0059991297 0.0035091219 0.0086575588
0.0059999996 0.0036590216 0.0087313764
-0.0058519933 0.00575162 0.0087898178
-0.0037948783 0.0059999991 0.0084551815
-0.0011962679 0.0059999996 0.008838526
0.0013745045 0.0059999991 0.008805491
0.003698813 0.0059999996 0.0086546484
0.0058887443 0.0056960657 0.0090660453
-0.017774913 -0.0053481963 0.012247154
-0.016218418 -0.0055166474 0.012068721
-0.013199391 -0.0056766472 0.012067392
-0.011358157 -0.0056576184 0.012070827
-0.0087003335 -0.0056944648 0.012035726
-0.0060828459 -0.0056827907 0.011467435
-0.0040205624 -0.0059991307 0.011249421
-0.0012952809 -0.0059991311 0.011555608
0.0013234899 -0.0059991307 0.011051076
0.0036564684 -0.0059991311 0.011411155
0.0060080732 -0.0058465321 0.011478502
0.008975965 -0.0057606511 0.012119309
0.011477958 -0.0057545109 0.01211063
0.013914002 -0.0055787237 0.012111647
0.016115 -0.005783712 0.012200041
0.017932434 -0.0055012205 0.012215954
-0.017831944 -0.0038001928 0.0121431
-0.016451998 -0.0039554057 0.011999998
-0.013658588 -0.0037383963 0.011999998
-0.011097517 -0.0036778857 0.011999998
-0.0088816285 -0.0035383031 0.011999998
-0.0063982317 -0.0038672918 0.011375244
0.0061880262 -0.0039021785 0.011364132
0.0089351693 -0.0035375254 0.012
0.011238503 -0.003739516 0.011999998
0.013685542 -0.004045283 0.011999999
0.016008999 -0.0037942429 0.011999998
0.017797813 -0.0034387428 0.012019254
-0.017918628 -0.0014629457 0.012129433
-0.016418349 -0.0012513073 0.011999999
-0.013691512 -0.0012266871 0.011999998
-0.011295928 -0.0014416639 0.011999999
-0.0088685388 -0.0011911918 0.011999998
-0.0063033695 -0.0012503739 0.011483098
0.0063343788 -0.0010470776 0.011545456
0.0090586655 -0.0012507109 0.012000001
0.011344906 -0.0010738742 0.011999998
0.013535413 -0.0012221861 0.012
0.016318709 -0.0013067152 0.011999999
0.017862285 -0.0015128542 0.012120734
-0.017876709 0.0015036593 0.012096929
-0.016198443 0.0015922248 0.011999998
-0.013795863 0.0015530885 0.011999998
-0.01121169 0.0012370134 0.011999998
-0.0084706629 0.0012865189 0.011999998
-0.0063268924 0.0012461902 0.011513526
0.0062600067 0.0010989053 0.011270732
0.0090105543 0.0016189424 0.012000001
0.011294719 0.0012586137 0.011999998
0.013608533 0.0012227894 0.011999998
0.016478062 0.00092759077 0.011999998
0.017908126 0.0015487969 0.012238339
-0.017884322 0.0036339154 0.012105937
-0.016342619 0.0038172868 0.011999999
-0.013789374 0.0036162462 0.011999999
-0.011249311 0.0036675781 0.011999998
-0.0085259555 0.0035267295 0.011999999
-0.0062664202 0.0035041403 0.011355202
0.0065212408 0.003856078 0.011649997
0.0086370306 0.003464381 0.011999998
0.010968173 0.0036424526 0.011999999
0.013807294 0.0036273906 0.011999998
0.016129719 0.003915661 0.011999999
0.017972661 0.0038857874 0.01220896
-0.017963856 0.005164125 0.012168361
-0.016448999 0.0057594683 0.012076497
-0.013854891 0.0058393711 0.012122304
-0.011321799 0.0057152887 0.012128868
-0.0086750938 0.0055732341 0.012030363
-0.0059481803 0.0057641943 0.011428751
-0.0035517816 0.0059999991 0.011560073
-0.0013470881 0.0059999991 0.01122998
0.001239848 0.0059999991 0.010976928
0.0035283472 0.0059999996 0.011158168
0.0058634691 0.0057307282 0.011404472
0.0087704649 0.0057877796 0.012184539
0.011304139 0.0055048326 0.01208681
0.013466343 0.005661644 0.012072203
0.016192608 0.0057014525 0.012120334
0.017908189 0.005406057 0.012200373
-0.017993363 -0.0055589457 0.013409425
-0.01607844 -0.0059991311 0.013958155
-0.01355685 -0.0059991311 0.013471089
-0.011541659 -0.0059991302 0.013708628
-0.0087206047 -0.0059991307 0.013592405
-0.0063976049 -0.0059991311 0.013878557
-0.0033758336 -0.0059991311 0.013769337
-0.001320299 -0.0059991307 0.013591366
0.0013710507 -0.0059991307 0.01336838
0.0038774891 -0.0059991297 0.013593907
0.0061499979 -0.0059991316 0.013836588
0.0086345905 -0.0059991311 0.013814668
0.011438329 -0.0059991307 0.013979976
0.013726387 -0.0059991311 0.013746693
0.016220761 -0.0059991311 0.013827555
0.017910914 -0.0057094553 0.013737818
-0.0179992 -0.0037757896 0.013629752
0.017999105 -0.003942308 0.01377668
-0.0179992 -0.001452791 0.013689025
0.017999107 -0.001220163 0.013710224
-0.0179992 0.0012212441 0.013885302
0.017999101 0.0011758878 0.013664735
-0.0179992 0.0034621351 0.013689852
0.017999105 0.0037876135 0.013525351
-0.017898006 0.0058695418 0.01376807
-0.016425733 0.0059999987 0.013909442
-0.013951981 0.0059999991 0.013968811
-0.011128972 0.0059999991 0.013725376
-0.0087032253 0.0059999996 0.013653405
-0.0063810186 0.0059999991 0.013690626
-0.0036751369 0.0059999991 0.013654252
-0.0011427342 0.0059999996 0.013742528
0.0014099405 0.0059999991 0.013919824
0.0036858141 0.0059999991 0.013524327
0.0059563634 0.0059999996 0.013530117
0.0088744368 0.0059999996 0.013593824
0.011175138 0.0059999991 0.013821726
0.013946708 0.0059999991 0.013575025
0.01655075 0.0059999996 0.013885244
0.017899362 0.0056124465 0.014106363
-0.017888287 -0.0057779984 0.016290175
-0.015980924 -0.0059991307 0.016114896
-0.013453143 -0.0059991307 0.016314741
-0.0111093 -0.0059991311 0.016464444
-0.0086409925 -0.0059991311 0.016028212
-0.0062904167 -0.0059991316 0.016229255
-0.00404933 -0.0059991307 0.016545985
-0.001524106 -0.0059991297 0.016594654
0.001279907 -0.0059991311 0.016233781
0.0038912687 -0.0059991311 0.016252315
0.0062514003 -0.0059991311 0.016453946
0.0087770279 -0.0059991311 0.016252168
0.011144551 -0.0059991307 0.016206045
0.013713777 -0.0059991311 0.016263563
0.01606475 -0.0059991311 0.016208511
0.017864011 -0.0057483688 0.015815901
-0.0179992 -0.003611407 0.016327359
0.017999105 -0.0035612227 0.016326211
-0.0179992 -0.0012199422 0.016132329
0.017999103 -0.0012678247 0.016538803
-0.0179992 0.0012789017 0.016461473
0.017999103 0.0014249603 0.016109718
-0.0179992 0.0036400573 0.016110651
0.017999103 0.0038949705 0.016182542
-0.01788038 0.0057406598 0.016143501
-0.016046993 0.0059999996 0.016375577
-0.013569848 0.0059999991 0.016166184
-0.01123392 0.0059999982 0.016185706
-0.0087839952 0.0059999996 0.01630876
-0.0061453497 0.0059999991 0.015946548
-0.0038275195 0.0059999996 0.016164754
-0.0010434682 0.0059999991 0.016059525
0.0011982151 0.0059999996 0.016458744
0.0033185487 0.0059999996 0.016410546
0.0061242953 0.0059999987 0.016158013
0.0086125191 0.0059999987 0.016191622
0.011034511 0.0059999991 0.016312629
0.013682552 0.0059999991 0.016023528
0.016066702 0.0059999991 0.01616241
0.017936308 0.0058461186 0.016273141
-0.017966153 -0.0057654344 0.018912714
-0.015974402 -0.0059991307 0.018512292
-0.013720211 -0.0059991307 0.018742178
-0.01109832 -0.0059991311 0.018815432
-0.0091336519 -0.0059991302 0.018460799
-0.00624952 -0.0059991311 0.018648786
-0.0038503762 -0.0059991311 0.018766239
-0.0010995577 -0.0059991311 0.018711807
0.001518111 -0.0059991307 0.019105148
0.003851505 -0.0059991311 0.01900335
0.0063645798 -0.0059991311 0.018911164
0.0088273389 -0.0059991311 0.018627796
0.011383427 -0.0059991311 0.01887266
0.013732406 -0.0059991311 0.018795919
0.016186999 -0.0059991311 0.018837525
0.017928829 -0.0057043689 0.018811254
-0.0179992 -0.0038019817 0.018890446
0.017999103 -0.0037293406 0.018603148
-0.0179992 -0.0013336434 0.018679721
0.017999105 -0.0012348257 0.018925643
-0.0179992 0.0010504196 0.018513644
0.0179991 0.0013293966 0.018671585
-0.0179992 0.0033747149 0.018927557
0.017999101 0.0036586695 0.019112583
-0.017894503 0.0056619258 0.018779274
-0.016045818 0.0059999996 0.01887235
-0.013690549 0.0059999996 0.018978471
-0.010917051 0.0059999991 0.018777536
-0.008752849 0.0059999991 0.018995645
-0.0063346485 0.0059999996 0.018818576
-0.0035980355 0.0059999991 0.018631855
-0.0014260672 0.0059999991 0.018739205
0.0012581338 0.0059999991 0.01882619
0.0037763938 0.0059999996 0.018639194
0.0062680272 0.0059999991 0.018487033
0.0088069411 0.0059999991 0.018943802
0.011294362 0.0059999996 0.018698219
0.013811224 0.0059999996 0.018555323
0.016180139 0.0059999996 0.018368214
0.017940501 0.0056450269 0.018530425
-0.017896816 -0.0057540596 0.021161417
-0.016282815 -0.0059991316 0.02122118
-0.014038105 -0.0059991307 0.021241207
-0.011089991 -0.0059991302 0.021457434
-0.0088513987 -0.0059991311 0.021286659
-0.0061537758 -0.0059991311 0.021185741
-0.0036806434 -0.0059991311 0.021157477
-0.0011538913 -0.0059991316 0.021144936
0.0011987285 -0.0059991311 0.021266902
0.0039132247 -0.0059991311 0.021200702
0.0062062014 -0.0059991321 0.021081734
0.0086681908 -0.0059991311 0.021236271
0.011330231 -0.0059991316 0.021476435
0.013574803 -0.0059991307 0.021180229
0.01640938 -0.0059991307 0.020927582
0.017911982 -0.0055689048 0.021067059
-0.0179992 -0.0036340849 0.021177033
0.017999103 -0.0036531424 0.020982858
-0.0179992 -0.0013195142 0.021320809
0.017999103 -0.00076709106 0.021292225
-0.0179992 0.0013689017 0.021109419
0.017999101 0.0010991144 0.021051083
-0.0179992 0.0035501784 0.021427115
0.017999103 0.0035619091 0.020991609
-0.017902918 0.0057053198 0.021607952
-0.016258849 0.0060000001 0.021062108
-0.013665461 0.0059999991 0.02144118
-0.011477738 0.0059999991 0.02095465
-0.0087925512 0.0060000005 0.021426704
-0.0062100636 0.0059999996 0.021312878
-0.0037804672 0.0059999996 0.020760886
-0.0010179748 0.0059999991 0.021347044
0.0014066583 0.0059999991 0.021493718
0.0037532914 0.0059999991 0.021065794
0.0062477309 0.0059999991 0.020975875
0.0090647032 0.0059999996 0.021095416
0.011210417 0.0059999996 0.021425007
0.013931647 0.0059999991 0.021408556
0.016395876 0.0059999991 0.021004088
0.017798882 0.0057744496 0.02131254
-0.017787794 -0.0056107729 0.023578145
-0.016032856 -0.0057465946 0.023565359
-0.013830839 -0.0057473797 0.023647541
-0.011319672 -0.0059746532 0.023217006
-0.0087431315 -0.0058239447 0.023514543
-0.0061325403 -0.0059274449 0.02358802
-0.0036662463 -0.0059991307 0.023769768
-0.001311672 -0.0059991311 0.023584045
0.0013366543 -0.0059991311 0.023692086
0.0037823822 -0.0059991307 0.02390589
0.0064429622 -0.0058108228 0.023833107
0.0088441288 -0.005767331 0.023519408
0.011203106 -0.0057682702 0.023670776
0.013982345 -0.0058037327 0.023638634
0.016377751 -0.0057431287 0.023533098
0.017612742 -0.0056194058 0.023325495
-0.017908612 -0.0036624887 0.023598619
-0.016298128 -0.0037369072 0.023999101
-0.013396611 -0.0034613542 0.023999097
-0.011386927 -0.0038105487 0.023999097
-0.0086831758 -0.0037246281 0.023999097
-0.0065544285 -0.0037546952 0.024126254
0.0065005207 -0.003611011 0.024222054
0.0085436134 -0.0039947731 0.023999097
0.011155498 -0.0038665226 0.023999097
0.013875602 -0.003699556 0.023999097
0.016214186 -0.0035918052 0.023999097
0.017949181 -0.0036703756 0.023294551
-0.017910499 -0.0011846165 0.023589937
-0.016507708 -0.0012508937 0.023999097
-0.013463296 -0.0015499217 0.023999097
-0.011047148 -0.001204685 0.023999097
-0.0088296914 -0.0013175895 0.023999099
-0.0064379373 -0.0014459391 0.024283482
0.0064130365 -0.0013412696 0.024191767
0.0087944735 -0.0012642888 0.023999097
0.011373158 -0.0012467245 0.023999097
0.013717074 -0.0010803137 0.023999097
0.015980141 -0.0014169835 0.023999097
0.017960057 -0.0011458942 0.023426194
-0.017938407 0.0013107054 0.023395214
-0.016267363 0.0012937282 0.023999097
-0.013868829 0.0012029929 0.023999099
-0.011198949 0.00099569885 0.023999099
-0.0088574011 0.0012040734 0.023999099
-0.006488678 0.0012219852 0.02423281
0.0063463892 0.0011642348 0.024324633
0.0087461388 0.001334917 0.023999097
0.011014911 0.0011876731 0.023999097
0.014066751 0.0010501387 0.023999099
0.016019698 0.0011442356 0.023999097
0.017972827 0.0011861535 0.023401545
-0.017922679 0.0040501812 0.023704825
-0.016231649 0.0041700103 0.023999097
-0.013878936 0.0038015652 0.023999097
-0.011257156 0.0037001029 0.023999097
-0.0091164 0.0039638295 0.023999097
-0.0064777518 0.0038031135 0.024228616
0.0065054521 0.003824034 0.024166636
0.0088244444 0.0038366716 0.023999097
0.011136125 0.0034356418 0.023999097
0.013864207 0.0036130911 0.023999097
0.015993845 0.0035199542 0.023999097
0.01797357 0.003518017 0.023219028
-0.017832998 0.0059195878 0.023275385
-0.016160039 0.0057912217 0.023496579
-0.013521998 0.0058939685 0.0234724
-0.011136748 0.0058229435 0.023468502
-0.0087699108 0.0058225077 0.023587009
-0.006386946 0.0058548036 0.023738489
-0.0036568264 0.0059999996 0.023953607
-0.0013207332 0.0059999991 0.023886187
0.0010925684 0.0059999991 0.024001932
0.0038206475 0.0059999991 0.023961939
0.0061162268 0.0057581919 0.023755621
0.0088371532 0.0058594896 0.023516348
0.010796334 0.0057921964 0.023669023
0.013642661 0.0058027827 0.023609862
0.016262805 0.0057956865 0.023558268
0.017948205 0.0054793819 0.023252258
-0.005785726 -0.0057392847 0.026496563
-0.0037560652 -0.0059991311 0.026033999
-0.0013569924 -0.0059991311 0.026018582
0.0012909948 -0.0059991307 0.026254684
0.0037262961 -0.0059991307 0.026455907
0.0055860751 -0.0059177727 0.025922783
-0.0059991307 -0.0038132872 0.026218338
0.0060000001 -0.0040686866 0.026106685
-0.0059991297 -0.0011775284 0.025832897
0.0059999991 -0.0013442175 0.026197229
-0.0059991307 0.0011337647 0.026031971
0.0059999996 0.0010556113 0.026393473
-0.0059991311 0.0037239674 0.026456803
0.0059999991 0.0039468207 0.026362196
-0.0056882459 0.0058081006 0.02637686
-0.0035960139 0.0059999996 0.026336936
-0.001148568 0.0059999991 0.026389766
0.0013445679 0.0059999991 0.026351823
0.003874501 0.0059999996 0.026142251
0.005780533 0.0057074912 0.026197538
-0.0057861046 -0.0057546627 0.028599659
-0.0037942794 -0.0059991316 0.028994355
-0.0010218581 -0.0059991307 0.028954366
0.0010792444 -0.0059991311 0.028854936
0.0037640457 -0.0059991311 0.028713726
0.0058341725 -0.005634544 0.028391108
-0.0059991311 -0.0038986788 0.028676664
0.0059999991 -0.003357789 0.028803121
-0.0059991311 -0.0013311231 0.028973574
0.0059999987 -0.0010457552 0.028611155
-0.0059991311 0.0013392178 0.028565533
0.0059999991 0.0010892764 0.028646648
-0.0059991311 0.0039299121 0.028587025
0.0059999991 0.0039458908 0.028917024
-0.0056043412 0.0057781646 0.029236805
-0.0040836828 0.0059999996 0.028551254
-0.0014034869 0.0059999991 0.028600901
0.0013739205 0.0059999996 0.02882332
0.0038733948 0.0059999991 0.028918758
0.0058269221 0.0056991423 0.028611757
-0.0056993542 -0.0057950183 0.031226452
-0.0038017493 -0.0059991302 0.03132594
-0.0014212311 -0.0059991311 0.031301081
0.0012991049 -0.0059991311 0.031158626
0.0034171648 -0.0059991307 0.031229191
0.0057267621 -0.0057457536 0.031471513
-0.0059991307 -0.0037738294 0.031095028
0.0059999987 -0.0037231154 0.031263445
-0.0059991307 -0.0013570485 0.031260125
0.0059999991 -0.0011809247 0.031188546
-0.0059991316 0.0012576812 0.031140219
0.0059999991 0.0010522588 0.03118572
-0.0059991297 0.0036743819 0.03153415
0.0060000005 0.0034944119 0.03107997
-0.0056639048 0.0057867086 0.031283893
-0.0037332901 0.0059999996 0.031370372
-0.0012582544 0.0059999991 0.031282336
0.0012423571 0.0059999991 0.030987477
0.0038903933 0.0059999991 0.031182369
0.0058025606 0.0057788962 0.031255104
-0.0058276202 -0.0056600943 0.033835147
-0.0037890819 -0.0059991311 0.033793509
-0.001130824 -0.0059991307 0.033970814
0.0013921211 -0.0059991321 0.033689883
0.0038033528 -0.0059991316 0.033826854
0.0056281784 -0.0058243391 0.033394046
-0.0059991311 -0.003784315 0.033782244
0.0059999996 -0.0037462758 0.03413197
-0.0059991311 -0.0015759479 0.033902146
0.0059999996 -0.0011419584 0.03376532
-0.0059991311 0.0012636207 0.033862907
0.0059999987 0.0013781465 0.033634253
-0.0059991311 0.0039859279 0.033699926
0.0059999991 0.0034816233 0.033459354
-0.0057703429 0.0057465821 0.033534385
-0.0033757428 0.0059999996 0.033853695
-0.0012248155 0.0059999991 0.033954527
0.0010958273 0.0059999996 0.033489551
0.00378685 0.0060000001 0.034126908
0.0057390821 0.0058568171 0.033759329
-0.0055903811 -0.0058132079 0.0356622
-0.0038292517 -0.0057370174 0.035809938
-0.0010882157 -0.0057694893 0.035743974
0.0012117432 -0.0054924018 0.035861291
0.0034783147 -0.0056689437 0.035843186
0.0057344162 -0.0057171858 0.035784908
-0.0057210829 -0.0037755631 0.03583806
-0.0040465416 -0.0041753934 0.035999198
-0.0014953512 -0.0039903885 0.035999198
0.0016534834 -0.0035591596 0.035999198
0.0035601181 -0.0038910643 0.035999201
0.0056697372 -0.0037465771 0.035772666
-0.0058570611 -0.0010965932 0.035785217
-0.0036294626 -0.001404152 0.035999201
-0.0013603633 -0.0013153011 0.035999194
0.0015552228 -0.0015093273 0.035999198
0.0037671088 -0.0011850105 0.035999205
0.0056364215 -0.001240841 0.03583046
-0.0057386425 0.0014567993 0.035777301
-0.0037889043 0.001278437 0.035999194
-0.0011918893 0.0013428509 0.035999198
0.0013170891 0.0010591384 0.035999201
0.0038895905 0.0012577337 0.035999205
0.005824999 0.0011872854 0.035611421
-0.0057068025 0.0038619188 0.035756152
-0.0036610581 0.0037499303 0.035999194
-0.0011682113 0.003745042 0.035999201
0.0014517909 0.0037582882 0.035999205
0.0036483314 0.0039056649 0.035999198
0.0058081243 0.0041423165 0.03561927
-0.005613172 0.0057719103 0.03549343
-0.0037288233 0.005901448 0.03562732
-0.0012718807 0.0057731937 0.035787541
0.0008824438 0.0058863419 0.035746101
0.0037152017 0.0057032453 0.035791963
0.0056474749 0.005773732 0.035570577
