# .PCD v0.7 - Point Cloud Data file format
VERSION 0.7
FIELDS x y z
SIZE 4 4 4
TYPE F F F
COUNT 1 1 1
WIDTH 933
HEIGHT 1
VIEWPOINT 0 0 0 1 0 0 0
POINTS 933
DATA ascii
-0.011579633 -0.012500001 0.0024328653
-0.0089103663 -0.012500001 0.00062943029
-0.0064317621 -0.012500001 0.0013878376
-0.0033447258 -0.012500001 0.0011966561
-0.0009215282 -0.012500001 0.0017726028
0.00030302227 -0.012500001 0.0012861253
0.004014058 -0.012500001 0.00058863091
0.0062161037 -0.0125 0.0017733137
0.0082395021 -0.012500001 5.6934357e-05
-0.012500002 -0.010632236 0.0013412343
-0.011654641 -0.011649362 0.00086209713
-0.0087622777 -0.011861001 0.00060974195
-0.0064993268 -0.011844595 0.00074066722
-0.0038004543 -0.011707677 0.00038018951
-0.0010681616 -0.01170645 0.0006031181
0.0012490461 -0.012068998 0.00062741112
0.0037484795 -0.011646159 0.00046271682
0.0063704355 -0.01181723 0.00068396458
0.0086434102 -0.011721808 0.00055754848
0.011149246 -0.011675676 0.00059563731
0.012500002 -0.011218471 0.0014288101
-0.0125 -0.0083750132 0.0017916659
-0.012127865 -0.0087677976 0.00082087354
-0.0086997608 -0.008870542 0
-0.0062796986 -0.0083378255 0
-0.0038352464 -0.0088634985 0
-0.0013830697 -0.0083963824 0
0.0013817572 -0.0086107804 0
0.0038093657 -0.0088086957 0
0.0061103958 -0.0085835941 0
0.0087575959 -0.0088609243 0
0.011337665 -0.0085672354 0
0.012499998 -0.0086000171 0.0012999631
-0.0125 -0.0071318499 0.0013949183
-0.011848132 -0.0061719022 0.00050349638
-0.0089168726 -0.0061816778 0
-0.0059752017 -0.0060004913 0
-0.0036758373 -0.006357444 0
-0.0012349574 -0.0062643299 0
0.0011989074 -0.0063130078 0
0.003988876 -0.0061478652 0
0.0063890531 -0.0061874767 0
0.0090348069 -0.0062137558 0
0.011198245 -0.0063586328 0
0.012500002 -0.0064166691 0.0012705091
-0.012500002 -0.003317215 0.0013548455
-0.011805204 -0.0038039368 0.00044335547
-0.008591936 -0.0034213313 0
-0.0061541805 -0.003861004 0
-0.0035953263 -0.0032409693 0
-0.00158282 -0.0036305226 0
0.0012497969 -0.0035826585 0
0.0034979528 -0.0035967813 0
0.0063149696 -0.0035646488 0
0.0086922282 -0.0037075854 0
0.011153445 -0.0037060259 0.00019413732
0.012500002 -0.0035693338 0.00118621
-0.0125 -0.00084897829 0.0014206787
-0.011761128 -0.0012141454 0.00054802885
-0.00910105 -0.0012643284 0
-0.0064690113 -0.0012023281 0
-0.0037471922 -0.0010888374 0
-0.0015389437 -0.0008862149 0
0.0012974956 -0.0012985277 0
0.0037616591 -0.0011270522 0
0.0062918602 -0.0014276445 0
0.008936611 -0.0013808704 0
0.011321953 -0.0013288963 0
0.012500002 -0.0013607261 0.0011299576
-0.012500001 0.00035783416 0.0020695834
-0.01179032 0.0013717262 0.00055554358
-0.0090703098 0.0015454306 0
-0.0064372872 0.0017719571 0
-0.0034989053 0.0012423637 0
-0.0014475645 0.0011654561 0
0.0010203171 0.0013744311 0
0.0036659562 0.0011842585 0
0.0062727151 0.0012618725 0
0.0086264955 0.0013489843 0
0.011248597 0.0012217516 0.0001527844
0.012500002 0.0011803157 0.001196268
-0.012500001 0.0040997202 0.00093963637
-0.011605126 0.0036593729 0.00054278271
-0.0085160807 0.0035867237 0
-0.0063836733 0.0037155927 0
-0.0038174246 0.00368791 0
-0.0012025804 0.0037721975 0
0.00099958235 0.0037034014 0
0.0038224878 0.0039127977 0
0.0062154774 0.0036961252 0
0.0088544395 0.0036697611 0
0.011461434 0.0039354768 0.00016486608
0.012500002 0.0036023099 0.0011087222
-0.012500002 0.0060157613 0.0013061786
-0.011803612 0.0061519369 0.00048713986
-0.0088875685 0.0064078714 0
-0.0065042409 0.0062076417 0
-0.0035168342 0.0060706423 0
-0.0011490677 0.0062941131 0
0.0013179944 0.0060153664 0
0.0039928444 0.0060740463 0
0.0062760464 0.0060982965 0
0.0086133219 0.0063187974 0
0.011129134 0.0062834229 0.00013670373
0.012500002 0.0061742058 0.0013953992
-0.012500001 0.0083465651 0.0016563481
-0.011992243 0.0089828772 0.0007113936
-0.0085849958 0.008829887 0
-0.0059975642 0.0088806115 0
-0.0039924467 0.0089640943 0
-0.00088314206 0.0088320617 0
0.0014340386 0.0085507631 0
0.0036357162 0.0089157522 0
0.0059571862 0.0087369625 0
0.0088281753 0.0088309785 0
0.011267082 0.0087718507 7.6204742e-05
0.012500002 0.0084968796 0.0010609274
-0.012017897 0.011014839 0.00051023916
-0.0090359375 0.011508136 0
-0.0061068586 0.011197411 0
-0.003809612 0.011372318 0
-0.001422374 0.011259463 0
0.0010933712 0.011663277 0.00025123238
0.0040646894 0.011382029 3.1685831e-05
0.0058135777 0.011410565 0.00021020844
0.0086804256 0.011360057 0.00032281133
0.011518599 0.011682034 0.0001569633
0.012500002 0.011312414 0.0012053454
-0.011071473 0.012500001 0.0011595273
-0.0084970035 0.0125 0.0014002026
-0.0064047887 0.012500002 0.0013968776
-0.0037569189 0.012500002 0.0012864613
-0.0015635976 0.012500001 0.0013604633
0.0010695043 0.012500002 0.0010879022
0.0037435815 0.012500002 0.0010093312
0.0063666771 0.012500002 0.0011424961
0.0088643935 0.012500001 0.00086676341
0.011316404 0.012500001 0.001003437
-0.010808383 -0.0125 0.004262446
-0.009130355 -0.012500001 0.0040449831
-0.0064778756 -0.012500001 0.0039865631
-0.0035900241 -0.012500002 0.0041412679
-0.0004262079 -0.012500001 0.0036443956
0.00075060956 -0.012500001 0.0043663564
0.0041158441 -0.012500001 0.0041772323
0.0068468028 -0.0125 0.0040179933
0.0087344218 -0.012500001 0.0043162191
0.010793131 -0.012500001 0.0048669251
-0.0125 -0.011849542 0.0034334946
-0.011874647 -0.011841532 0.0038903458
-0.0091162054 -0.0125 0.0034226063
-0.0065008407 -0.012500001 0.0038055445
-0.0040554348 -0.0125 0.0032259221
-0.0012475903 -0.012500001 0.0038061093
0.00079344335 -0.012499999 0.0032878143
0.0035510242 -0.012500002 0.0037143871
0.0060944352 -0.012500002 0.0038408448
0.0088734142 -0.012500002 0.0037628049
0.011394667 -0.012500001 0.0038019163
0.012500002 -0.011074578 0.0037367875
-0.012500001 -0.0088327397 0.0036919829
0.0125 -0.0091470107 0.0039769341
-0.012500002 -0.0063157068 0.0040233545
-0.012500002 -0.0061778226 0.0037470136
0.012500001 -0.0060690837 0.0037743386
-0.012500001 -0.0037552405 0.0043636505
-0.0125 -0.0038174177 0.0036240972
0.012499999 -0.0037709805 0.0034444039
0.012500002 -0.0037954415 0.0039518811
-0.012500001 -0.00074696791 0.003954438
-0.012500001 -0.0012958546 0.0038478996
0.012499999 -0.00072747562 0.0046008993
0.012500002 -0.0014396743 0.0038762579
-0.0125 0.0011206386 0.0036360912
-0.012500002 0.0015143253 0.0034407934
0.012499999 0.00081912009 0.0035556378
0.012500002 0.0012061633 0.0037285446
-0.012500002 0.003558029 0.0037438688
-0.0125 0.0036626693 0.0040435181
0.012499999 0.0031903002 0.0036878658
0.012500002 0.0039131902 0.0033472369
-0.012500002 0.0062827566 0.0036570649
-0.0125 0.0066093854 0.0040488909
0.012499999 0.0055308728 0.0025501193
0.012500002 0.0064590434 0.0032941257
-0.012500002 0.0089051565 0.0036587091
0.012499999 0.0090309959 0.004326398
0.012500002 0.0091502825 0.0039490154
-0.012500002 0.011175673 0.0037582754
-0.0053750444 0.012499999 0.0036444427
-0.00055865687 0.012499999 0.0034437727
0.0015805424 0.012499999 0.0032406009
0.0040103914 0.012499999 0.0043089138
0.0066667511 0.012499999 0.0036285766
0.0087811016 0.012499999 0.003334516
0.011401498 0.012499999 0.0041874889
0.012500002 0.010782453 0.0036344305
-0.010917859 0.012500002 0.0037618694
-0.0087940358 0.012500002 0.00385417
-0.006013148 0.012500002 0.0037089554
-0.0036287282 0.012500002 0.0041216784
-0.0014117128 0.012500002 0.0039481409
0.00098169211 0.012500002 0.0039616926
0.0037514183 0.012500002 0.0038581742
0.0061180568 0.012500002 0.0038744838
0.0086816037 0.012500002 0.0039419318
0.011313883 0.012500001 0.0034485329
-0.011507271 -0.012500001 0.0065425308
-0.009302279 -0.012500001 0.0064211432
-0.005728839 -0.012500002 0.0062992373
-0.0032460336 -0.012500002 0.0062654191
-0.00082181446 -0.0125 0.0067685209
0.0010707843 -0.012500002 0.0060944585
0.0043073194 -0.012500001 0.0063031251
0.0061537102 -0.012500001 0.0059582964
0.0086363917 -0.012500001 0.0063195275
0.011089842 -0.012500001 0.0064257616
-0.0125 -0.011671872 0.0059934109
-0.011717034 -0.011857772 0.006250686
-0.0085500032 -0.012499999 0.0065059233
-0.006277177 -0.0125 0.006275259
-0.0039214897 -0.012500002 0.0063503562
-0.001632881 -0.012499999 0.0068255113
0.0015353678 -0.012500001 0.0063873874
0.0040064873 -0.0125 0.0063640531
0.0060490682 -0.012500002 0.006138273
0.0089116171 -0.012500002 0.0061128628
0.011189486 -0.012500002 0.0064029144
0.012500001 -0.011246151 0.0063073956
-0.012500001 -0.0077642282 0.0058042989
-0.0125 -0.0090372339 0.0066851
0.012499999 -0.0076876897 0.0071019344
0.012500002 -0.0085187433 0.0062872092
-0.012500002 -0.0067602037 0.0059959441
-0.012500002 -0.0060139694 0.0058508622
0.012499999 -0.0056147827 0.0062836818
0.012500002 -0.0060915346 0.0064196275
-0.0125 -0.0035763339 0.006529381
-0.0125 -0.0037568184 0.0063795447
0.012499999 -0.0039248238 0.0060005733
0.012500002 -0.0036211533 0.0062117139
-0.012500002 -0.0016028704 0.0065496848
-0.012500001 -0.0010536917 0.0065845251
0.012499999 -0.00084448699 0.0072463285
0.012500002 -0.0012067881 0.0067492542
-0.012500001 0.0020168298 0.0053276285
-0.012500002 0.0011360343 0.0064534163
0.012499999 0.0019430793 0.0059079835
0.012500001 0.00072711165 0.0062004696
-0.012500002 0.0039351662 0.0060857232
-0.012500002 0.0035663748 0.0061841505
0.012499999 0.002588968 0.0057942751
0.012500002 0.0039442438 0.0063239308
-0.012500001 0.0059838435 0.0068349391
-0.012500001 0.0064768316 0.0059356182
0.012499999 0.0062787188 0.006304353
0.012500002 0.0064985049 0.0061936118
-0.012500002 0.0085288016 0.0064521399
-0.012500001 0.0088095712 0.0065584984
0.012499999 0.0095862281 0.0064243609
0.0125 0.0085417321 0.0064211865
-0.012500001 0.01153628 0.0050928807
-0.012500002 0.011023169 0.0063800276
-0.00609252 0.012499999 0.0059345234
-0.00076773786 0.012499999 0.0064842105
0.0040787719 0.012499999 0.0067070634
0.0090293819 0.012499999 0.0067834421
0.012188181 0.011790474 0.0064671081
0.012500002 0.011202454 0.0062483642
-0.011249758 0.012500002 0.0064234915
-0.0083895894 0.012500001 0.0064520501
-0.0063591264 0.012500002 0.0060415268
-0.0036182075 0.012500002 0.0062619559
-0.001254188 0.012500002 0.0059881057
0.0011795209 0.012500002 0.0058778957
0.003557821 0.012500002 0.0065054814
0.0062344116 0.012500002 0.0063232607
0.0087091243 0.012500002 0.0062174397
0.011553986 0.012500002 0.0062198704
-0.010792905 -0.012500002 0.0082566319
-0.0087548299 -0.012500001 0.0086686583
-0.0064504566 -0.012500002 0.0085265506
-0.0033932971 -0.012500002 0.0088518029
-0.0011262298 -0.012500002 0.0087814685
0.0010396412 -0.012500002 0.0085183457
0.0037448786 -0.012500002 0.0088587441
0.0068945633 -0.012500001 0.0084419763
0.0086862426 -0.012500001 0.0085697072
0.011059723 -0.012500002 0.0086593935
-0.012500001 -0.011930014 0.0097104535
-0.011854449 -0.011962977 0.0084373336
-0.009027251 -0.012499999 0.0090300599
-0.0060702157 -0.0125 0.0087678479
-0.0036592509 -0.0125 0.0090445206
-0.0019817015 -0.012500001 0.0089315167
0.0013177241 -0.012500001 0.0089712664
0.0038572997 -0.012500001 0.0087156678
0.0066307983 -0.012500001 0.0092292409
0.0088374009 -0.012500001 0.0087948693
0.011639494 -0.012300557 0.0088167228
0.012499998 -0.01110674 0.0089324545
-0.012500001 -0.0090024024 0.0089543918
-0.012500002 -0.0084508844 0.0084943948
0.0125 -0.0085119661 0.0091158897
-0.0125 -0.0062273447 0.0087537952
-0.012500001 -0.0063468493 0.0085662659
0.012499999 -0.0054982896 0.0091580972
0.012500002 -0.006029421 0.0086562736
-0.012500001 -0.0038517369 0.0083784601
-0.012499999 -0.0038189536 0.0086447317
0.012499999 -0.0035341429 0.0089944936
0.012500002 -0.0037158132 0.0090321889
-0.012500001 -0.0013624335 0.0085327588
-0.0125 -0.0010870082 0.0086560259
0.012499998 -0.0011454653 0.0086362297
0.012500002 -0.0014603841 0.0087219328
-0.012500001 0.0012663831 0.009019969
-0.012500002 0.0013783342 0.0087016905
0.012499999 0.0013963757 0.0085583245
0.012500001 0.0011117745 0.0086334934
-0.012500002 0.0040915892 0.0092531163
-0.012499999 0.0032730426 0.0089092478
0.012500002 0.0039184578 0.0085049747
-0.012500001 0.0063178097 0.0095904963
-0.012500002 0.0061989422 0.0083889673
0.012499999 0.0058732731 0.0093209874
0.012500002 0.0064071789 0.0089790095
-0.012500001 0.0099879056 0.0077439044
-0.012500001 0.0083397785 0.009174387
0.012499999 0.009255657 0.009864484
0.012500002 0.0087192217 0.0085138064
-0.012500001 0.010477813 0.0080140727
-0.012172651 0.011732023 0.0091501158
-0.0095512839 0.012499999 0.0089692203
-0.006044969 0.012499999 0.0081033064
-0.0038369624 0.012499999 0.0085590286
-0.0012347193 0.012499999 0.0085610626
0.0011022915 0.012499999 0.00800185
0.0033626426 0.012499999 0.0087254839
0.0062128729 0.012499999 0.0085148206
0.0089529585 0.012499998 0.0086845681
0.011683803 0.012060227 0.0089715095
0.012500002 0.011399942 0.0084191402
-0.01131002 0.0125 0.0087667247
-0.0085295979 0.012500002 0.009067391
-0.0062519535 0.012500001 0.00903037
-0.0042728358 0.012500002 0.0088515347
-0.0012679817 0.012500001 0.0089670587
0.001507965 0.012500002 0.0089916512
0.0037551029 0.012500002 0.0086932611
0.0063679963 0.012500002 0.0085450634
0.00904187 0.012500002 0.0087654935
0.011304406 0.012500002 0.0087454785
-0.010902159 -0.012500001 0.010191868
-0.0084408382 -0.012500002 0.010800919
-0.0063724476 -0.012500002 0.011002711
-0.0041156146 -0.012500002 0.01102474
-0.0024094777 -0.012500001 0.011933596
0.0019748304 -0.0125 0.01125892
0.0037782944 -0.012500001 0.011006506
0.0066284481 -0.012500001 0.011354648
0.0085912198 -0.012500002 0.010696975
-0.012500001 -0.010967854 0.011058819
-0.011960795 -0.011883589 0.011423383
-0.0086464258 -0.012500001 0.011108338
-0.0062932349 -0.012500001 0.011040261
-0.0035756868 -0.0125 0.011465778
-0.0012598529 -0.012500001 0.01115142
0.0012757413 -0.012500002 0.011111765
0.0040657609 -0.012500001 0.011203955
0.0064742714 -0.012500001 0.011120357
0.0085702175 -0.012500001 0.01082704
0.011101373 -0.012500002 0.011052437
0.012500002 -0.011255045 0.010906678
-0.012500001 -0.0093670702 0.011121145
-0.0125 -0.0087283049 0.010988013
0.012499999 -0.0090900362 0.011681445
0.012500001 -0.0087428465 0.010920687
-0.012500002 -0.0064838319 0.011232823
-0.0125 -0.0064155208 0.010700857
0.012499999 -0.0059245732 0.011762296
0.012500001 -0.0062806709 0.011437804
-0.012500002 -0.00408328 0.0111308
-0.012500001 -0.0037280391 0.011453128
0.012499999 -0.0037398562 0.011110053
0.012500002 -0.0040595788 0.011148616
-0.012500001 -0.0019641817 0.011655718
-0.0125 -0.00081872364 0.010967831
0.012500002 -0.0013029358 0.011458206
-0.012500001 0.0010079797 0.011215849
-0.012500002 0.0012874282 0.01129329
0.012499999 0.00054393261 0.011102485
0.012500002 0.0014947191 0.011551265
-0.012500001 0.003920923 0.011147214
-0.0125 0.003500822 0.011476192
0.012499999 0.0036910591 0.01135201
0.012500002 0.0039652777 0.011451329
-0.012500002 0.005857808 0.011610718
-0.012499999 0.0053137392 0.011343433
0.012499999 0.0062778415 0.011221955
0.012500002 0.0062985229 0.011302724
-0.012500001 0.0085262181 0.011288197
-0.012500002 0.0087934965 0.011243471
0.012499999 0.0097616464 0.010530937
0.012500002 0.0087035121 0.011233427
-0.012500001 0.010522045 0.012194207
-0.012500002 0.011422383 0.011119733
-0.0082333488 0.012499999 0.011872056
-0.0039073159 0.012499999 0.01106062
-0.0016740534 0.012499999 0.011102709
0.0015479978 0.012499999 0.010981047
0.0041310275 0.012499999 0.011475133
0.0061272467 0.012499999 0.011011215
0.0089127012 0.012499999 0.011365251
0.01195279 0.011918875 0.011242482
0.012500002 0.011218649 0.0110818
-0.010922717 0.012500002 0.011712546
-0.0087054018 0.0125 0.011088592
-0.0061335037 0.012500002 0.011328523
-0.0036163377 0.012500002 0.011299938
-0.001198852 0.012500002 0.01105447
0.0012894312 0.012500002 0.01090782
0.0037750781 0.012500001 0.010911806
0.005951135 0.012500001 0.011220313
0.0082381461 0.012500002 0.01137825
0.011279309 0.012500001 0.011038621
-0.0089109465 -0.012500002 0.013476861
-0.0031633172 -0.0125 0.013775845
-0.0017345549 -0.012500001 0.013803522
0.0014961708 -0.012500002 0.014174472
0.0035235218 -0.012500002 0.013940445
0.00547993 -0.0125 0.012936562
0.008597658 -0.012500002 0.013778037
0.011284269 -0.012500001 0.013575273
-0.012500001 -0.011145363 0.012908587
-0.011813156 -0.012051746 0.013692373
-0.0087253582 -0.0125 0.01393952
-0.006027211 -0.012500002 0.014003486
-0.0037253252 -0.012500002 0.013764426
-0.0011018524 -0.012500002 0.01364856
0.0012548122 -0.012500001 0.013686387
0.0040495391 -0.012500002 0.013699532
0.0060404916 -0.012500002 0.013499353
0.008992332 -0.012500002 0.013459709
0.011507426 -0.012064672 0.014011596
0.012500002 -0.011185346 0.013868987
-0.012500001 -0.0075416788 0.013204269
-0.012500002 -0.0090157483 0.0138359
0.012499999 -0.0083796978 0.013484153
0.012500002 -0.0088757779 0.014057623
-0.012500001 -0.0063051297 0.013416322
-0.0125 -0.0061127241 0.014066381
0.012499999 -0.0072351638 0.012503497
0.012500002 -0.0063463086 0.013400028
-0.012500002 -0.0036626889 0.013658268
-0.012499999 -0.0042958064 0.013811488
0.012499999 -0.0040247333 0.01392373
0.012500002 -0.0035575072 0.013766011
-0.012500002 -0.0016363399 0.013821522
-0.012500002 -0.0014228816 0.01357928
0.012499999 -0.0012326108 0.013890862
0.012500002 -0.0013332377 0.013812232
-0.012500001 0.0011461676 0.013690393
-0.012500001 0.0013955872 0.013897295
0.012500002 0.0011038393 0.013625255
-0.012500001 0.004246043 0.013411133
-0.012500002 0.003692677 0.014165253
0.012499999 0.0034120898 0.014240608
0.012500002 0.0036697425 0.013560208
-0.012500001 0.0062177991 0.013283396
-0.0125 0.0062759155 0.013283356
0.012499999 0.0065220976 0.013604467
0.012500002 0.0061528333 0.013915497
-0.012500002 0.0084587662 0.013479988
-0.012500002 0.0090462966 0.013560722
0.012499999 0.0085314466 0.013131551
0.012500002 0.0084224073 0.014138508
-0.012500001 0.011701119 0.013157327
-0.012191349 0.011588777 0.013622495
-0.0084583694 0.012499999 0.014252709
-0.0059907176 0.012499999 0.014800297
-0.0043561161 0.012499999 0.013911757
-0.0019118532 0.012499999 0.013348545
0.0013549002 0.012499999 0.014931058
0.0042657414 0.012499999 0.012856615
0.0074140225 0.012499999 0.01435911
0.0076866574 0.012499999 0.014377472
0.012499999 0.010295834 0.01316181
0.012500002 0.011154362 0.014049925
-0.011197454 0.012500002 0.013787595
-0.0087280869 0.012500001 0.013650785
-0.0062055863 0.012500002 0.013695884
-0.0039393613 0.012500002 0.013996636
-0.0015094291 0.012500002 0.013581593
0.0013335415 0.0125 0.013854879
0.0034123606 0.012500002 0.013725138
0.0060967612 0.012500002 0.013642982
0.0083139511 0.0125 0.013588411
0.011597947 0.012500002 0.013766979
-0.01233118 -0.012500001 0.016593389
-0.0085957488 -0.012500002 0.016495803
-0.0062111658 -0.012500002 0.016633723
-0.0036783167 -0.012500001 0.016773747
-0.0011033347 -0.012500002 0.016387992
0.0013601619 -0.012500002 0.016508495
0.003311439 -0.012500001 0.016886836
0.0058789551 -0.012500002 0.016364515
0.0090444842 -0.012500002 0.016564934
0.011196956 -0.012500002 0.01602331
-0.0125 -0.011210452 0.01676546
-0.011515118 -0.011913402 0.016281348
-0.0089102611 -0.0125 0.016123665
-0.0063618124 -0.012499999 0.015724305
-0.0036780271 -0.0125 0.016261669
-0.0012593576 -0.012500001 0.016037118
0.0015061114 -0.012499999 0.016183075
0.0037415384 -0.012499999 0.016367875
0.0062626069 -0.012500002 0.016259816
0.0088751102 -0.012500001 0.016434764
0.011653605 -0.012264685 0.016131049
0.012500002 -0.011055301 0.016471276
-0.012500002 -0.0091293082 0.016238982
0.012499999 -0.0085059097 0.016582916
0.012500002 -0.0089577204 0.016293593
-0.012500001 -0.0062206923 0.016119752
-0.012500002 -0.0061978577 0.016135667
0.012499999 -0.0050824378 0.016717851
0.012500002 -0.0062830118 0.016024005
-0.012500002 -0.0040599103 0.016607584
-0.012500001 -0.0038327116 0.016239084
0.012499999 -0.0035620399 0.015827063
0.012500002 -0.0037550284 0.016437776
-0.012500001 -0.0012862354 0.016366029
-0.012500002 -0.001221483 0.016170906
0.012499999 -0.00085553282 0.016240954
0.012500001 -0.0011773929 0.01623228
-0.012500002 0.0012959508 0.016323149
-0.012499999 0.0016428329 0.016378047
0.012499999 0.00098081783 0.016185544
0.012499999 0.0011758928 0.016131146
-0.012500002 0.0039848811 0.016545968
-0.0125 0.0036583778 0.016024133
0.012499999 0.0034212 0.016471967
0.012500002 0.0038758388 0.016373334
-0.012500002 0.0061268434 0.016468609
-0.012500002 0.006241207 0.015932599
0.012499999 0.0062143188 0.015082243
0.012500002 0.006154974 0.016422736
-0.012500001 0.0082132388 0.016502675
-0.0125 0.008666194 0.016127238
0.012499999 0.0094961673 0.016856024
0.0125 0.0086292056 0.016803851
-0.012500001 0.010610896 0.016477652
-0.012125431 0.01161928 0.016457899
-0.0086129988 0.012499999 0.016425379
-0.0054911021 0.012499999 0.016713766
-0.0037508276 0.012499999 0.015262149
-0.0013930801 0.012499999 0.016016664
0.0013993746 0.012499999 0.016961001
0.002503508 0.012499999 0.015787167
0.0065033464 0.012499999 0.016286671
0.011145292 0.012499999 0.017016141
0.012500002 0.011288411 0.016144874
-0.011612975 0.012500001 0.016307274
-0.0086348439 0.012500002 0.015915744
-0.0063176272 0.012500002 0.016087295
-0.0033958431 0.012500002 0.01625766
-0.00099805812 0.0125 0.01600692
0.001504426 0.012500002 0.01630755
0.0037701621 0.012500002 0.016235683
0.0059645586 0.012500002 0.016234972
0.0088465773 0.012500002 0.016131489
0.011332197 0.012500002 0.016136639
-0.011147881 -0.012500001 0.018563325
-0.0090488894 -0.012500001 0.018465092
-0.006239126 -0.012500002 0.018907972
-0.0033787852 -0.0125 0.018558232
-0.0007442942 -0.012500002 0.018563125
0.0010348675 -0.012500002 0.019193793
0.0033274156 -0.0125 0.019016678
0.005654701 -0.012500001 0.019397836
0.0092480471 -0.012500001 0.019947564
0.011286418 -0.012500001 0.018885372
-0.0125 -0.011099804 0.01869355
-0.012005127 -0.011870698 0.018619025
-0.0089782802 -0.012500002 0.018630736
-0.006310137 -0.012500001 0.018755244
-0.0039589163 -0.012500002 0.018847398
-0.0014534418 -0.012500001 0.019148953
0.0010077865 -0.012500002 0.018988831
0.0036097949 -0.012500001 0.018444447
0.0055666827 -0.012499999 0.018206818
0.0087024523 -0.012500002 0.018814992
0.011672316 -0.012356668 0.018564519
0.012500002 -0.011348616 0.018940708
-0.012500001 -0.0087744985 0.019201044
-0.012500001 -0.0088056559 0.019298634
0.012499999 -0.0093047228 0.019274315
0.0125 -0.0086860945 0.018812137
-0.012500002 -0.0065277903 0.018703016
-0.012500002 -0.0061138421 0.01855161
0.012500002 -0.0064804163 0.018336354
-0.0125 -0.0039109741 0.019046793
-0.012500002 -0.0036473311 0.018833956
0.012499999 -0.0039439946 0.018397048
0.012500002 -0.003477433 0.019238586
-0.0125 -0.0016931474 0.019158533
-0.012500002 -0.0013810595 0.018743509
0.012499999 -0.0010875617 0.019216483
0.012500002 -0.00079624815 0.018783739
-0.012500001 0.0014656107 0.018673882
-0.012500002 0.0010077339 0.018711662
0.012499999 0.00044045225 0.017807849
0.012500002 0.0011279617 0.018730069
-0.012500002 0.0040835747 0.018638756
-0.0125 0.0034643647 0.01856681
0.012499999 0.0043027098 0.018350556
0.012500001 0.0037909739 0.018931622
-0.012500002 0.0062037292 0.018899508
-0.012500002 0.0064624571 0.018707862
0.012499999 0.0060228105 0.018946394
0.012500001 0.0063307309 0.018887151
-0.012500001 0.0082221907 0.018356379
-0.012500001 0.0089966021 0.018538496
0.012500002 0.0088082477 0.01876785
-0.0125 0.011112477 0.01938469
-0.012500001 0.01120426 0.0189621
-0.0078188404 0.012499999 0.019298557
-0.0041332226 0.012499999 0.019003201
-0.0012201732 0.012499999 0.019014042
0.0018158539 0.012499999 0.017915512
0.0059858002 0.012499999 0.018363984
0.0125 0.011356653 0.018890539
-0.01127904 0.012500002 0.019071588
-0.0086880401 0.012500002 0.018927392
-0.0061396803 0.012500002 0.018891983
-0.0038753955 0.012500002 0.019317303
-0.0013485033 0.012500002 0.018755704
0.0015083938 0.012500002 0.018876078
0.0037393107 0.012500002 0.018738035
0.0062483386 0.012500002 0.018840246
0.0086785108 0.012500001 0.018556159
0.011854364 0.012500002 0.018826498
-0.011001437 -0.012500001 0.020705963
-0.0086236214 -0.012500001 0.021281924
-0.0060418546 -0.012500002 0.021046
-0.00451528 -0.012500001 0.021318894
-0.001347607 -0.012500002 0.020813549
0.0012137602 -0.012500002 0.021188298
0.003990137 -0.012500001 0.021371586
0.005788818 -0.012500001 0.021116391
0.0088724522 -0.0125 0.020659046
-0.012500001 -0.012392433 0.020787301
-0.011781716 -0.011813213 0.021383036
-0.0088730482 -0.012500002 0.02148244
-0.0065981252 -0.0125 0.020466411
-0.00330144 -0.012500002 0.02129717
-0.001389385 -0.012500002 0.021353068
0.0011081025 -0.012500001 0.02126893
0.0038627882 -0.0125 0.02136158
0.0065465216 -0.012500002 0.021213535
0.0086400211 -0.012500001 0.021498438
0.011706314 -0.012401661 0.021257231
0.012500002 -0.011069279 0.021765977
-0.012500001 -0.007953316 0.021468917
-0.012500002 -0.0092870547 0.021216327
0.012499999 -0.0079956744 0.021760028
0.012500002 -0.0086781085 0.021507757
-0.012500002 -0.0065222457 0.021342376
-0.012500001 -0.0064540636 0.02158105
0.012499999 -0.0064312178 0.021275664
0.012500002 -0.0064877081 0.021558693
-0.012500002 -0.004145388 0.021203322
-0.012500002 -0.003601545 0.021017279
0.012499999 -0.003262142 0.020764016
0.012500002 -0.0038638369 0.021314459
-0.012500002 -0.0010138073 0.021179723
-0.012500001 -0.0011196528 0.021442715
0.012499999 -0.001363916 0.021775344
0.012500002 -0.0016331759 0.021077739
-0.012500001 0.00097101741 0.021652915
-0.012500001 0.0012821967 0.021452921
0.012499999 0.002053631 0.020145666
0.012500002 0.001452001 0.021534575
-0.012500001 0.0035264888 0.021664469
-0.012500001 0.0040541291 0.021141622
0.012499999 0.0036506983 0.021515202
0.012500001 0.0036976235 0.021271404
-0.012500002 0.0062239603 0.021453818
-0.012500002 0.0064608417 0.021145822
0.012500002 0.0061498317 0.021029571
-0.012500001 0.0090030041 0.020361748
-0.012500001 0.0086559663 0.021226127
0.012500002 0.0089044264 0.021161983
-0.012500001 0.011247896 0.021379579
-0.01234797 0.011422861 0.021632558
-0.0089550139 0.012499999 0.021335663
-0.0055284025 0.012499999 0.020349804
-0.0039796629 0.012499999 0.021140134
-0.00058523682 0.012499999 0.020610057
0.0015205666 0.012499999 0.021886598
0.0048777643 0.012499999 0.022241596
0.0053832028 0.012499999 0.020836568
0.012500002 0.011227136 0.02136654
-0.010957301 0.012500002 0.02104741
-0.0088492762 0.012500001 0.021412149
-0.0061933273 0.012500002 0.021102903
-0.0029662468 0.012500001 0.021200832
-0.0013741618 0.012500002 0.020887883
0.0015109428 0.012500002 0.021433707
0.0035481839 0.012500002 0.021045208
0.0065709213 0.012500001 0.020557113
0.0087522259 0.012500001 0.0212998
0.011309129 0.012500002 0.02115597
-0.0081928587 -0.012500001 0.023888111
-0.0059498386 -0.012500002 0.023130225
-0.00075171149 -0.012500001 0.022880562
0.0014683476 -0.012500001 0.022944966
0.0033364135 -0.0125 0.024908701
0.0055834865 -0.012500001 0.023644362
0.0079619996 -0.012500001 0.023684917
0.012490841 -0.012500001 0.022685831
-0.012008787 -0.011768791 0.023720512
-0.0088213719 -0.012500002 0.023720508
-0.0061986414 -0.012500002 0.02374039
-0.0038633593 -0.012224043 0.023287226
-0.0014243579 -0.012500001 0.024056617
0.00077440159 -0.012042322 0.02385773
0.0038386853 -0.012408511 0.023924313
0.0059561399 -0.012135507 0.024127483
0.0087703755 -0.012288911 0.024160711
0.01140827 -0.012449038 0.023771314
0.012500002 -0.011343697 0.023595491
-0.012500001 -0.007852843 0.023107491
-0.012500002 -0.009061276 0.02356904
-0.004656279 -0.0084762452 0.024999999
-0.0018811352 -0.0079550324 0.024999999
0.0017146432 -0.0081925904 0.024999999
0.004800654 -0.0087925345 0.024999999
0.0054519642 -0.0087681189 0.024999999
0.0086283274 -0.0085266698 0.024999999
0.01157618 -0.0079594515 0.024241243
0.012500002 -0.0087997727 0.023803903
-0.012500001 -0.0055892174 0.022595216
-0.012500001 -0.0064159352 0.023563815
-0.0094551332 -0.0051377155 0.024999999
-0.0063316207 -0.0062113083 0.024999999
-0.0036788178 -0.0061061587 0.024999999
-0.00059837056 -0.0052143028 0.024999999
0.00098071725 -0.0060607865 0.024999999
0.0032419197 -0.0061873235 0.024999999
0.0067250254 -0.0066710161 0.024999999
0.008513812 -0.0060060509 0.024999999
0.011463748 -0.0061871479 0.024352416
0.012500002 -0.0064230668 0.023903986
-0.012500002 -0.0036947161 0.023809852
-0.012418883 -0.0037507734 0.023738865
-0.005926894 -0.0027733271 0.024999999
-0.0038291155 -0.0027509953 0.024999999
-0.00051116338 -0.0049878322 0.024999999
0.00064964266 -0.0034120802 0.024999999
0.0035359962 -0.0037442718 0.024999999
0.0063832323 -0.0048211212 0.024999999
0.011653959 -0.0031530017 0.024411699
0.012500002 -0.0036702782 0.02369697
-0.012308204 -0.001592117 0.023704072
-0.007651425 -0.0004977482 0.024999999
-0.0058558057 -7.5735617e-05 0.024999999
-0.0034147974 -0.00056488538 0.024999999
-0.0010819032 -0.0016299525 0.024999999
0.00018308296 -0.00074643362 0.024999999
0.0040859804 -0.0019699116 0.024999999
0.008887927 -0.00069172954 0.024999999
0.012019914 -0.0011038785 0.024307469
0.012500002 -0.0014993823 0.023859181
-0.012500002 0.0012310235 0.023801861
-0.012450955 0.0014927486 0.023859706
-0.0086596683 0.00097331253 0.024999997
-0.0068100933 0.00084738876 0.024999999
-0.0038933721 0.00074173894 0.024999999
-0.0010599174 0.0012388015 0.024999999
0.0022479142 0.0022548188 0.024999999
0.0038731277 0.0014924245 0.024999999
0.012500002 0.0012412979 0.023495601
-0.012500002 0.0036046617 0.02411337
-0.012397409 0.0038310576 0.023905016
-0.0099470336 0.0037536062 0.024999999
-0.0053360332 0.0030831804 0.024999999
-0.0034859013 0.0034266517 0.024999999
-0.0019168434 0.004012838 0.024999999
0.0024487493 0.0047489614 0.024999999
0.0039792247 0.0031411282 0.024999999
0.0050159115 0.0025405823 0.024999999
0.011466642 0.0041243434 0.024944894
0.012500002 0.0036113628 0.023802681
-0.012500001 0.006288406 0.023668671
-0.012500002 0.0061742612 0.023877742
-0.0087170359 0.007086847 0.024999999
-0.0061017466 0.0053686015 0.024999999
-0.0036289687 0.0058682328 0.024999999
-0.0012138904 0.0062645231 0.024999999
1.3676938e-05 0.0055138329 0.024999999
0.0035804971 0.0054754126 0.024999999
0.0062092105 0.0061292187 0.024999999
0.0125 0.006502171 0.023478944
-0.012500001 0.0083278529 0.023852088
-0.012168028 0.0089197578 0.024067966
-0.0079314262 0.0084613711 0.024999999
-0.0058807367 0.0086452002 0.024999999
-0.0045256354 0.0076503595 0.024999999
-0.0018491019 0.0087479325 0.024999999
0.0013606525 0.0076710191 0.024999999
0.0034487783 0.0083499271 0.024999999
0.012500001 0.0088841449 0.023742814
-0.0125 0.01195619 0.023360571
-0.012076974 0.011531162 0.023797998
-0.009029557 0.012065551 0.024121163
-0.0066376799 0.01043456 0.024999999
-0.0036978091 0.011877653 0.024625272
-0.0010099648 0.011564225 0.024454147
1.5014462e-05 0.012499999 0.024462299
0.0041087004 0.011923946 0.024732167
0.012500002 0.011496116 0.023805697
-0.010820502 0.012500002 0.024043668
-0.0085653039 0.012500002 0.023730909
-0.0062580956 0.012500002 0.023448629
-0.0037706194 0.012500002 0.023693571
-0.00067191618 0.0125 0.023964731
0.0015285853 0.012500001 0.023858389
0.0038959484 0.012500002 0.023421245
0.0060985917 0.012500002 0.023879744
0.0089353034 0.012500002 0.023768976
0.011256577 0.012500002 0.023870578
-0.011276155 -0.011261929 0.025000004
-0.008638951 -0.011248346 0.025000004
-0.0061978414 -0.01090055 0.025000004
-0.0036794578 -0.011375578 0.025000004
-0.0011737511 -0.011148071 0.025000004
0.0013321543 -0.010877032 0.025000004
0.003889058 -0.011402785 0.025000004
0.00637487 -0.011474427 0.025000004
0.0084568691 -0.011047175 0.025000004
0.01131425 -0.011410556 0.025
-0.01118063 -0.0083415145 0.025000002
-0.0087390281 -0.0088830078 0.025000004
-0.0062042531 -0.0088948281 0.025000004
-0.0034753873 -0.008553233 0.025000004
-0.0012847222 -0.0088100741 0.024999999
0.0010374809 -0.0088109514 0.025000004
0.0039697364 -0.008595882 0.025000004
0.0064194431 -0.0085845292 0.025
0.0087735998 -0.0082408926 0.025000002
0.011571204 -0.0086882263 0.025000004
-0.011268031 -0.0065762922 0.025000004
-0.0085329497 -0.0064551146 0.025000004
-0.0061483919 -0.0061311964 0.025000004
-0.0038277642 -0.0059223678 0.025000004
-0.0011766569 -0.0062371865 0.025000004
0.0011272088 -0.0061521363 0.025000004
0.0041414932 -0.0061924127 0.025000004
0.0061192852 -0.0062125395 0.025000004
0.0088464618 -0.0062333941 0.025000002
0.011222021 -0.0064430423 0.025
-0.011221247 -0.0036447172 0.025000004
-0.0088360021 -0.003688395 0.025000004
-0.0065880134 -0.0039004735 0.025
-0.0035478678 -0.0041901441 0.025000002
-0.0013182798 -0.0042454582 0.025000004
0.0012941337 -0.0036000954 0.025000004
0.0037301437 -0.0036790513 0.025000002
0.0063936529 -0.0037441936 0.025000004
0.0090073813 -0.0037643451 0.025000004
0.011216071 -0.0038220135 0.025000004
-0.011158323 -0.0014460207 0.025000004
-0.008901991 -0.001182325 0.025000004
-0.0066236332 -0.0011375389 0.025000004
-0.0033620128 -0.001244314 0.025000004
-0.00090963172 -0.0014044484 0.025000002
0.00099441211 -0.0012714339 0.025000004
0.003939678 -0.0010176299 0.025000002
0.0065644649 -0.0013094369 0.025000004
0.008755628 -0.0010699607 0.025000004
0.011006856 -0.0012668718 0.025000004
-0.011158047 0.00139607 0.025000002
-0.008552867 0.0010649129 0.025000004
-0.0060436833 0.0012537562 0.025000004
-0.0039110831 0.0012220715 0.025000004
-0.0012939951 0.0012665411 0.025000002
0.0014116809 0.0013356217 0.025000004
0.0039839912 0.0016108367 0.025000004
0.0063620005 0.0013190543 0.025000004
0.0083941724 0.00159855 0.025000002
0.011544177 0.0012858588 0.025000004
-0.011668402 0.0036870039 0.025000004
-0.0087287603 0.0034837462 0.025000002
-0.0061892928 0.003904351 0.024999999
-0.0036331061 0.0034325612 0.025000004
-0.0011104465 0.0038982974 0.025000004
0.0011940254 0.0041726385 0.025000004
0.0036477824 0.0039095748 0.025000002
0.0062117348 0.0039693182 0.025000004
0.0085796732 0.0035212527 0.025000004
0.011085884 0.0030779785 0.025000004
-0.011304449 0.0064922855 0.025
-0.0089177629 0.0062432853 0.025000004
-0.0064435112 0.0061995075 0.025
-0.0040541543 0.006362617 0.025000004
-0.0013245066 0.0059185675 0.025000004
0.0013083798 0.0063295541 0.025000004
0.0039177258 0.0065102768 0.025000004
0.005817594 0.0065662041 0.025000002
0.0088225156 0.0065566082 0.025000002
0.011789255 0.0061598145 0.025000004
-0.011526563 0.0087074237 0.025000002
-0.009051566 0.0091056535 0.025000004
-0.0060881749 0.0086493306 0.025000004
-0.0035689184 0.0090735946 0.025000002
-0.0010195416 0.0087307785 0.025000002
0.0012537054 0.0088521941 0.025000004
0.0036047057 0.0088192839 0.025000004
0.006386009 0.0087681869 0.025
0.0090381615 0.0089541785 0.025
0.011403324 0.0085270591 0.024999995
-0.011390082 0.011450955 0.025000004
-0.0091061909 0.01122807 0.025000004
-0.0064522494 0.011680384 0.025000004
-0.0037045164 0.011174864 0.025000004
-0.0014005407 0.011194523 0.025000004
0.001248489 0.01133526 0.025000004
0.0035912807 0.011299265 0.025000002
0.006337462 0.011317432 0.024999999
0.0086434307 0.011079979 0.025000004
0.011560171 0.011055737 0.025000004
