# .PCD v0.7 - Point Cloud Data file format
VERSION 0.7
FIELDS x y z
SIZE 4 4 4
TYPE F F F
COUNT 1 1 1
WIDTH 417
HEIGHT 1
VIEWPOINT 0 0 0 1 0 0 0
POINTS 417
DATA ascii
-0.010828448 -0.0053769695 0.0011161759
-0.0088243838 -0.0054701832 0.0011564682
-0.0064819758 -0.0054098554 0.0010002515
-0.0035195819 -0.0054630642 0.0012042633
-0.0012176834 -0.0054784389 0.0010555849
0.0011600935 -0.0054708351 0.00084920728
0.0036571531 -0.0054809456 0.0011304629
0.0063212132 -0.0054833312 0.0012245007
0.0088175796 -0.005455438 0.00093727798
0.011478303 -0.0054309042 0.0012901648
0.013582923 -0.0054263375 0.0011563622
-0.011326059 -0.0036695118 0.00085838599
-0.0087718097 -0.0037832188 0
-0.0062023052 -0.0034211033 0
-0.0039829104 -0.003794146 0
-0.0013010664 -0.0037231341 0
0.0010733609 -0.0035817602 0
0.0037904351 -0.003846321 0
0.0062988726 -0.0038250976 0
0.0087140314 -0.0036298176 0
0.011251029 -0.0037338198 0
0.013936553 -0.0037726366 0.00060908025
-0.011339866 -0.001150611 0.00092729548
-0.0087514166 -0.0010486919 0
-0.006402405 -0.001119398 0
-0.0036633206 -0.0014007411 0
-0.0011199352 -0.0011477702 0
0.0015327991 -0.0011819957 0
0.0037053209 -0.0012289005 0
0.0063899606 -0.0011822234 0
0.0087738857 -0.0013889971 0
0.011282676 -0.0011784637 0
0.013986691 -0.0012944983 0.00077575201
-0.011261576 0.0011944053 0.00094913086
-0.0085394681 0.0011847424 0
-0.0060655982 0.0013665119 0
-0.0038583488 0.0011960848 0
-0.001088353 0.0012829499 0
0.0012211292 0.0012749414 0
0.003796689 0.0012255799 0
0.0060868929 0.0012685857 0
0.0086235795 0.00115151 0
0.010854856 0.0013262815 0
0.013960565 0.0012194035 0.00067161187
-0.011306316 0.0037818465 0.00076825509
-0.00903452 0.0037549136 0
-0.0062235901 0.0037359397 0
-0.0038860529 0.0039325068 0
-0.001200868 0.0038267393 0
0.0011377768 0.0036926339 0
0.003841988 0.0038900946 0
0.0060516195 0.0037103079 0
0.0088832313 0.0039054041 0
0.011094309 0.0038219991 0
0.013846808 0.0036233666 0.00054954796
-0.011045531 0.0053641857 0.0010523131
-0.0088062193 0.0054676989 0.0010168996
-0.0062839384 0.0054635955 0.00097775075
-0.0039448654 0.0054358141 0.00095681287
-0.0013942375 0.0054601752 0.00095018692
0.0011367429 0.0054665445 0.00096435106
0.0037334685 0.0054549854 0.0011011601
0.0063145435 0.005480093 0.0010146353
0.008852032 0.0054349857 0.00090139703
0.011276131 0.0054696896 0.0011873748
0.013773385 0.0054186345 0.0013258251
-0.011241405 -0.0054441518 0.0036089353
-0.0086632688 -0.0055000018 0.0036872153
-0.006254931 -0.0055000014 0.0037443899
-0.0038811152 -0.0055000009 0.0039029962
-0.001260674 -0.0055000014 0.0037219003
0.0011988508 -0.0055000018 0.0037934266
0.0037218323 -0.0055000018 0.0040306239
0.0062136417 -0.0055000018 0.0038585032
0.0085843448 -0.0055000014 0.0036166122
0.011398374 -0.0055000023 0.0037753403
0.013526171 -0.0054155062 0.0038072141
-0.0119085 -0.0036829959 0.0036549373
0.014075065 -0.0039594579 0.0036921962
-0.011899582 -0.0012334868 0.0035778426
0.01408309 -0.0009914682 0.0036224648
-0.011930175 0.001282445 0.0038423059
0.014111067 0.00093887054 0.0033793633
-0.011931048 0.0039305314 0.0038498584
0.014085213 0.0038285246 0.0036040174
-0.011336101 0.0054085455 0.0037477573
-0.0088373395 0.0055000023 0.0035409692
-0.0060603232 0.0055000018 0.0037907416
-0.0035475211 0.0055000018 0.0036933289
-0.0014113932 0.0055000018 0.0035900997
0.001152252 0.0055000018 0.0036974677
0.0035165022 0.0055000014 0.0036683502
0.0063536512 0.0055000023 0.0036710245
0.0084775975 0.0055000018 0.0037455668
0.011405061 0.0055000023 0.0037075495
0.01361747 0.0053694113 0.0035870394
-0.011357118 -0.0054963552 0.0064728004
-0.0087781521 -0.0055000018 0.0065371934
-0.0062683038 -0.0055000014 0.0061685853
-0.0038836072 -0.0055000023 0.0063186958
-0.0015133792 -0.0055000009 0.0064903395
0.0011066293 -0.0055000018 0.006152119
0.003812331 -0.0055000023 0.0062216362
0.0061714789 -0.0055000023 0.0063694287
0.008979721 -0.0055000009 0.0065224157
0.011398352 -0.0055000018 0.0062828488
0.013288071 -0.0054513775 0.0064185103
-0.012208891 -0.0038381978 0.0062517072
0.013771098 -0.0039059031 0.0063333083
-0.012196367 -0.0013478784 0.0061434456
0.013789401 -0.001491424 0.0061742645
-0.012226148 0.0011111933 0.0064008883
0.013784137 0.0016521019 0.0062200176
-0.012209675 0.0038005649 0.0062585012
0.013795142 0.0038687736 0.0061244029
-0.011234266 0.0054483009 0.006312503
-0.0089123193 0.0055000023 0.0064073545
-0.0066514644 0.0055000023 0.0060977167
-0.0036537761 0.0055000023 0.0063080788
-0.0010289308 0.0055000018 0.0063004242
0.001280474 0.0055000023 0.0060834894
0.0038844433 0.0055000023 0.0061855949
0.0058016954 0.0055000014 0.0058728186
0.0085372822 0.0055000018 0.0059381947
0.011127827 0.0055000023 0.0061988225
0.013242529 0.0054540141 0.0062122243
-0.012546634 -0.0051265098 0.0091713723
-0.011301013 -0.005480214 0.0085586356
-0.0088916933 -0.0055000023 0.0087128179
-0.0062026423 -0.0055000018 0.0087356046
-0.0035141085 -0.0055000023 0.0088951755
-0.0013096619 -0.0055000023 0.0087292111
0.0013150238 -0.0055000018 0.0088199731
0.0038852487 -0.0055000023 0.0085648345
0.006223103 -0.0055000018 0.0088513382
0.0085771428 -0.0055000023 0.0088693742
0.011247098 -0.0055000018 0.0089004263
0.013183333 -0.0054468596 0.0087407716
-0.012569007 -0.0033104504 0.0093647651
-0.012454783 -0.0035487728 0.0083773397
0.01353223 -0.0038575346 0.0084087979
-0.012564108 -0.00091207266 0.0093224319
-0.012422957 -0.0011914269 0.0081022205
0.013501666 -0.0013027481 0.0086743506
-0.012560123 0.0015784148 0.0092879739
-0.012428047 0.001360383 0.0081462376
0.013485316 0.0012736274 0.0088164136
-0.012567162 0.0038246356 0.0093488032
-0.012429164 0.0036722592 0.0081558861
0.013474102 0.0038105652 0.0089138569
-0.012553337 0.0052176141 0.0093668895
-0.011267757 0.0054608984 0.0085780825
-0.0086612348 0.0055000023 0.0088116489
-0.0062116082 0.0055000014 0.0089055011
-0.0033909846 0.0055000014 0.008544961
-0.0012551101 0.0055000023 0.0085037798
0.0012060005 0.0055000018 0.0087958267
0.0033177864 0.0055000014 0.0086887674
0.0060453978 0.0055000018 0.0085418439
0.0087162182 0.0055000023 0.008977348
0.011354025 0.0055000014 0.0086472062
0.013140115 0.0054445975 0.0087676616
-0.012746004 -0.0053781937 0.011777386
-0.011547776 -0.0055000009 0.011503605
-0.0086851614 -0.0055000023 0.011137204
-0.0062081707 -0.0055000018 0.011049634
-0.0040344251 -0.0055000014 0.011039793
-0.0012185103 -0.0055000018 0.011195897
0.0015477121 -0.0055000018 0.011467116
0.0036924074 -0.0055000018 0.011425283
0.0060956362 -0.0055000014 0.011375906
0.0087354425 -0.0055000018 0.01132608
0.011464139 -0.0055000023 0.011359903
0.012949102 -0.0054633096 0.010981553
-0.012767422 -0.0036343324 0.011079991
0.013187063 -0.0035678733 0.011407893
-0.012749947 -0.0014092072 0.010928916
0.013238441 -0.0011134727 0.010961469
-0.012794821 0.0012346556 0.011316844
0.013189826 0.0011248827 0.011383885
-0.012812219 0.0037553005 0.011467232
0.013209524 0.0037535862 0.011212753
-0.012759656 0.0054303915 0.01149359
-0.011310173 0.0055000004 0.011164983
-0.0087056151 0.0055000018 0.011084365
-0.0062488709 0.0055000004 0.010997538
-0.0033590726 0.0055000014 0.011313871
-0.0013709515 0.0055000023 0.011197979
0.0012423598 0.0055000018 0.011304664
0.0035964032 0.0055000023 0.01118244
0.0062991749 0.0055000018 0.011342923
0.0086216526 0.0055000023 0.011201329
0.0113546 0.0055000018 0.011299775
0.012795614 0.0055 0.011284919
-0.012854731 -0.0054911524 0.013588022
-0.011386421 -0.0055000018 0.013756938
-0.0087906551 -0.0055000023 0.013593712
-0.0063562165 -0.0055000009 0.01375943
-0.0036435418 -0.0055000023 0.013900806
-0.0011998472 -0.0055000023 0.013811411
0.0013893021 -0.0055000023 0.013724051
0.0039893952 -0.0055000018 0.013690224
0.0063440911 -0.0055000023 0.0137326
0.0085865678 -0.0055000023 0.013695458
0.011201585 -0.0055000018 0.01373776
0.012849409 -0.0053436658 0.013881085
-0.01309411 -0.0034756705 0.013904084
0.012918166 -0.0036038475 0.013744299
-0.013097389 -0.0012226016 0.013932432
0.01292685 -0.0013488511 0.013668831
-0.013084244 0.0012122277 0.013818795
0.012920289 0.0012765351 0.013725844
-0.013107611 0.0036729041 0.014020784
0.012939018 0.00397162 0.01356311
-0.012811046 0.0053987987 0.01363703
-0.011119536 0.0055000023 0.013889817
-0.0088249892 0.0055000023 0.013706567
-0.0062809326 0.0055000018 0.013904252
-0.0036262523 0.0055000018 0.01383599
-0.0013003133 0.0055000014 0.013635693
0.0015135879 0.0055000014 0.013805794
0.0037820318 0.0055000018 0.013694873
0.0061677131 0.0055000023 0.013762952
0.0085818898 0.0055000023 0.013730677
0.011276213 0.0055000023 0.013817713
0.012883096 0.0053205006 0.013785884
-0.013048881 -0.0055 0.016269069
-0.011280946 -0.0055000023 0.016130242
-0.0089415573 -0.0055000014 0.016266089
-0.0061516068 -0.0055000023 0.016387725
-0.0036509666 -0.0055000009 0.016277699
-0.0011601734 -0.0055000023 0.016181687
0.0015199482 -0.0055000018 0.016411643
0.0038173557 -0.0055000014 0.016122272
0.0061616912 -0.0055000018 0.016459662
0.0087015759 -0.0055000014 0.01614859
0.011079535 -0.0055 0.01638755
0.012608235 -0.0053687599 0.015944107
-0.013329021 -0.0037248738 0.015934808
0.012494577 -0.0037553962 0.017424798
0.012649772 -0.0036266933 0.016076321
-0.013363956 -0.0011048147 0.016236782
0.01248667 -0.0020744763 0.017493494
0.012656407 -0.0011223827 0.016018683
-0.013333515 0.0013595984 0.015973656
0.012630196 0.0010599771 0.016246425
-0.01336579 0.0036138678 0.016252654
0.012495904 0.0027728637 0.017413259
0.012627817 0.0037460008 0.016267104
-0.013085326 0.0054190555 0.016366435
-0.01139908 0.0055000023 0.016354077
-0.0088405218 0.0055000023 0.016339766
-0.0063191853 0.0055000018 0.016067086
-0.0038808594 0.0055000009 0.016173078
-0.001282615 0.0055000018 0.016194377
0.0014266601 0.0055000023 0.016281476
0.0041015153 0.0055000018 0.016218474
0.0063908962 0.0055000018 0.016266966
0.0089417063 0.0055000014 0.016012069
0.011584913 0.0055000018 0.016055005
0.0126485 0.0054047927 0.015991131
-0.013280886 -0.0053759003 0.018722827
-0.011058692 -0.0055000023 0.018758362
-0.008890247 -0.0055000018 0.018845061
-0.0062063909 -0.0055000018 0.018878661
-0.0037304738 -0.0055000018 0.018873079
-0.0011331791 -0.0055000014 0.018949986
0.0013003085 -0.0055000018 0.018650204
0.0040371572 -0.0055000014 0.018698366
0.0062896875 -0.0055000023 0.018661993
0.0086102942 -0.0055000023 0.018770276
0.01126489 -0.0054835901 0.018723819
-0.013666738 -0.0039528199 0.018854225
0.012308525 -0.0039002812 0.019041365
-0.013648706 -0.0014257171 0.018698342
0.012347049 -0.0015810482 0.018706623
-0.013631014 0.0013517038 0.018545432
0.012343262 0.0012369816 0.018739531
-0.01366055 0.0036191707 0.01880075
0.012354658 0.0037057318 0.01864052
-0.013391684 0.0054363282 0.018797625
-0.011539293 0.0055000018 0.018727757
-0.0088542132 0.0055000018 0.018751705
-0.0061833928 0.0055000018 0.018701766
-0.0035257186 0.0055000014 0.018804336
-0.0010571448 0.0055000018 0.018465158
0.0014646616 0.0055000014 0.018833093
0.0035914597 0.0055000018 0.018679341
0.0062299753 0.0055000023 0.018806126
0.0087497262 0.0055000023 0.018696414
0.011418968 0.0054266164 0.018758472
-0.01333697 -0.0054306774 0.021532603
-0.011080287 -0.0055000023 0.021648329
-0.0085930778 -0.0055000018 0.021233981
-0.0062669693 -0.0055000014 0.021197231
-0.0036376293 -0.0055000028 0.021195935
-0.0010600638 -0.0055000018 0.021148536
0.00099564332 -0.0055000018 0.021167981
0.0041099307 -0.0055000018 0.021329463
0.0063975509 -0.0055000009 0.021461125
0.008605741 -0.0055000023 0.021282885
0.011280365 -0.0054026069 0.021407846
-0.013950069 -0.0038018373 0.021303525
0.012032205 -0.0039596339 0.021442262
-0.01393227 -0.0013050486 0.021149648
0.012054554 -0.0011391185 0.021248089
-0.013942061 0.0015818004 0.021234289
0.012071512 0.0011101665 0.021100732
-0.013936463 0.0039885174 0.021185877
0.012079129 0.0036477081 0.021034544
-0.013524569 0.0054439893 0.021010371
-0.011167597 0.0055000014 0.021660974
-0.008621552 0.0055000014 0.021192336
-0.0063234046 0.0055000023 0.021170059
-0.0033005825 0.0055000009 0.021517621
-0.0012488338 0.0055000018 0.021159384
0.0011027312 0.0055000014 0.021222448
0.0040493691 0.0055000009 0.021137035
0.0063063037 0.0055000023 0.021172555
0.0084758615 0.0055000014 0.021228643
0.011222865 0.0054366593 0.0213951
-0.013655562 -0.0054437299 0.023629561
-0.011330342 -0.0055000018 0.023784617
-0.008692882 -0.0055000018 0.023841219
-0.0062530125 -0.0055000018 0.023630882
-0.0038349794 -0.0055000018 0.023584418
-0.001231315 -0.0055000023 0.023470342
0.0011475044 -0.0055000023 0.023569822
0.0038877998 -0.0055000023 0.024009837
0.0062915054 -0.0055000009 0.023363626
0.0085023539 -0.0054999995 0.023784989
0.011148518 -0.0054413057 0.02332929
-0.014237626 -0.0038475955 0.023789335
0.011756037 -0.0036474739 0.023841837
-0.014244394 -0.0013286195 0.023847837
0.011759982 -0.0012698896 0.023807568
-0.014241968 0.0013214705 0.023826856
0.011751078 0.0013594398 0.023884924
-0.014246806 0.0034903465 0.023868689
0.011772793 0.0035126898 0.023696249
-0.01396355 0.0054465476 0.02408001
-0.010955434 0.0055000018 0.023793982
-0.0088414149 0.0055000023 0.023645233
-0.0060546258 0.0055000023 0.023815244
-0.0036178371 0.0055000018 0.023744395
-0.0012535217 0.0055 0.023580238
0.0014263067 0.0055000018 0.023829643
0.0038247465 0.0055000018 0.023900645
0.006413402 0.0055 0.023626206
0.0088966396 0.0055000009 0.024020541
0.011106761 0.0054428028 0.024016881
-0.013307094 -0.0054469947 0.025506483
-0.011296649 -0.0054103998 0.025619157
-0.0084611308 -0.005379057 0.025673641
-0.0064842617 -0.0054644342 0.025593353
-0.0036854199 -0.0054171295 0.025638299
-0.0009945347 -0.005446739 0.025653815
0.001461397 -0.0054064654 0.025734827
0.0037709498 -0.0053542177 0.025651796
0.0060152584 -0.0054110996 0.025593717
0.0088641671 -0.005383851 0.025745237
0.010611921 -0.0053576054 0.025666287
-0.013826984 -0.0039158179 0.025793923
-0.011312208 -0.0036006863 0.025985701
-0.0086309491 -0.0038571639 0.025985701
-0.0066107861 -0.003851831 0.025985699
-0.003658423 -0.0038112125 0.025985695
-0.0012643264 -0.0040054005 0.025985703
0.0011425875 -0.0038757895 0.025985695
0.0037503073 -0.0038352439 0.025985695
0.006121981 -0.0037111626 0.025985703
0.008665544 -0.0036756506 0.025985701
0.011100337 -0.0036672091 0.02586754
-0.013969203 -0.001193097 0.025846291
-0.011350791 -0.0012791125 0.025985697
-0.0085342452 -0.0011315069 0.025985703
-0.0064816792 -0.0011449797 0.025985699
-0.0038542051 -0.0014024168 0.025985703
-0.0012184647 -0.001313291 0.025985697
0.0013269986 -0.0012320622 0.025985701
0.0037019125 -0.0011857538 0.025985695
0.0062947758 -0.0013127046 0.025985701
0.0086237136 -0.0012161051 0.025985701
0.010822957 -0.0016221395 0.02589215
-0.013893397 0.0014793901 0.025834832
-0.011129146 0.0014334497 0.025985695
-0.0086734295 0.0014511863 0.025985699
-0.0061589191 0.00090203062 0.025985694
-0.0036359918 0.001185706 0.025985697
-0.0012245094 0.001224124 0.025985705
0.00099133642 0.0011621898 0.025985701
0.0037688091 0.0013076533 0.025985703
0.0061608455 0.0012064219 0.025985694
0.00932403 0.0014599665 0.025985695
0.011115227 0.001237678 0.02576041
-0.014058812 0.0040377798 0.025872588
-0.01129471 0.0037611923 0.025985697
-0.0088408086 0.004032454 0.025985697
-0.0062321248 0.0037955511 0.025985694
-0.0039083618 0.0039183386 0.025985699
-0.0012542645 0.0037083051 0.025985703
0.0015086667 0.0035697515 0.025985701
0.0037578871 0.0036731008 0.025985701
0.0063269832 0.0039102426 0.025985701
0.0087009091 0.0039393245 0.025985695
0.011239808 0.0037688643 0.025650512
-0.013523015 0.0053883009 0.025695119
-0.011548731 0.005413387 0.025656566
-0.0085652908 0.0054199477 0.025752526
-0.0060930084 0.0054372456 0.025779555
-0.0036013378 0.005416404 0.025520455
-0.0013141462 0.0054639885 0.02561295
0.0014627313 0.0054267948 0.025703868
0.0038279518 0.005466687 0.025497083
0.0062467563 0.0054064118 0.025661053
0.0088802008 0.0053979582 0.025666168
0.010984981 0.0054033524 0.025726216
