# .PCD v0.7 - Point Cloud Data file format
VERSION 0.7
FIELDS x y z
SIZE 4 4 4
TYPE F F F
COUNT 1 1 1
WIDTH 904
HEIGHT 1
VIEWPOINT 0 0 0 1 0 0 0
POINTS 904
DATA ascii
-0.0056113121 -0.0082287993 0.00075269124
-0.0034552119 -0.0089420388 0.0011346642
-0.0010503485 -0.0091611631 0.00058132183
0.001167939 -0.0092285806 0.00061607349
0.0037504733 -0.0089985719 0.00073174102
0.0054842569 -0.0080126589 0.00072982808
-0.0079508144 -0.0057869665 0.0011984727
-0.0064227539 -0.0064846147 0.00026400702
-0.0041236794 -0.0065263845 0
-0.0013418943 -0.0062149307 0
0.0014573004 -0.0059679989 0
0.0035220094 -0.0064650993 0
0.0067077689 -0.0066250269 0.00033245594
0.0079484452 -0.0059251217 0.00067666743
-0.0089919912 -0.0035097634 0.00094001909
-0.0063632256 -0.0040143216 0
-0.0037764502 -0.0038683377 0
-0.0012747333 -0.0037832013 0
0.0015316223 -0.0037931034 0
0.004100237 -0.0039833821 0
0.0058480231 -0.0033596486 0
0.0087621827 -0.0035642842 0.00073089061
-0.009044948 -0.0015577312 0.00038425674
-0.0065413532 -0.0012056982 0
-0.0043947445 -0.0014583807 0
-0.0010332552 -0.0014192016 0
0.0016312987 -0.0010519084 0
0.0038695883 -0.0011899309 0
0.0061482131 -0.0010677248 0
0.0095258383 -0.0011983095 0.00084090454
-0.0090761753 0.0012457727 0.00062090845
-0.0059396317 0.0014910093 0
-0.003718633 0.0011798346 0
-0.0013816433 0.0010682424 0
0.0011790842 0.0017979986 0
0.0038717424 0.0014331178 0
0.0061147343 0.0013835027 0
0.0093760621 0.00141876 0.00052290305
-0.008935445 0.0038783837 0.00083891721
-0.0061081727 0.0032236364 0
-0.0035282224 0.0037561597 0
-0.0013050984 0.0035248522 0
0.0011990498 0.0036857335 0
0.0037187389 0.0038497401 0
0.0059138136 0.0035988793 0
0.0087802736 0.0034493625 0.00045305301
-0.0080022467 0.0058670235 0.0012854171
-0.0065187351 0.0067077572 0.00046115581
-0.0039056991 0.0071182717 0
-0.0012891205 0.006425431 0
0.0010662376 0.0058839847 0
0.0038386704 0.0061160508 0
0.0064827208 0.0062512835 0.00030208507
0.008136306 0.0057315272 0.0011853111
-0.0058615021 0.0080469986 0.0010821559
-0.0034889514 0.0090589933 0.00079421682
-0.0014497573 0.0092138201 0.0009076235
0.0013243201 0.0093011567 0.00055689359
0.0038471741 0.0088005867 0.00082241237
0.0056624627 0.0080788787 0.00061863859
-0.0054481109 -0.0083367592 0.0038791362
-0.0036745812 -0.0092304805 0.0040364852
-0.0013565414 -0.0098574907 0.0032133607
0.00094633212 -0.0099021662 0.0034924168
0.0038085871 -0.009183378 0.0040198276
0.0056057172 -0.0082331123 0.0033974226
-0.0080632763 -0.0058037387 0.0041100625
-0.0068266029 -0.0072588399 0.0038230347
0.0069340584 -0.0071505103 0.0037642957
0.0081744045 -0.0056850538 0.0039817258
-0.00908361 -0.004022711 0.003975051
0.0092775011 -0.0035597431 0.0037603113
-0.0098740356 -0.0011014749 0.0040422701
0.009866735 -0.0012175032 0.0035959834
-0.0098304553 0.0015746919 0.0038344983
0.0098527381 0.00126292 0.0033032012
-0.0092504621 0.0036402082 0.0038472468
0.0092746429 0.0035760878 0.0038646217
-0.0082881879 0.005550344 0.003834432
-0.0070331017 0.0070553399 0.0036903059
0.0070548356 0.007013401 0.0039348085
0.008064351 0.0058253026 0.0035777753
-0.0056997654 0.0081606284 0.0038031761
-0.003797048 0.0091761369 0.0033247059
-0.0013010991 0.0098603871 0.0039187479
0.001054734 0.0098939687 0.0034136758
0.0037073311 0.0092038121 0.0039649908
0.0055035669 0.0083123799 0.0038596755
-0.0057308367 -0.0081224656 0.0061544818
-0.0037397924 -0.0092040431 0.0060137114
-0.0015608774 -0.0098339636 0.0057187886
0.0011288808 -0.009871725 0.0058231
0.0039395578 -0.009145515 0.0064694192
0.0055923485 -0.0082484679 0.0060427617
-0.0080294367 -0.0058865761 0.0063014575
-0.0070152641 -0.0070861271 0.0061441027
0.0069270395 -0.0071504782 0.0059711291
0.0080490438 -0.0058644377 0.0064761532
-0.009148906 -0.003851888 0.0062790038
0.0092657618 -0.0035646653 0.0066677951
-0.0099158017 -0.00085486309 0.0062536756
0.0098259514 -0.0014494541 0.006480631
-0.0098565379 0.0012744887 0.0061943601
0.0098421462 0.0013504998 0.0063027944
-0.0091346446 0.0039038493 0.0062573012
0.0092497971 0.0035984409 0.006270255
-0.0079672672 0.0059603374 0.0062855305
-0.0070555424 0.0070267138 0.0060128807
0.0070838314 0.0070163691 0.0064608888
0.0080880076 0.0058054235 0.0062697758
-0.0060053957 0.0079212189 0.0063316217
-0.0037705817 0.0091798948 0.0064087179
-0.0015137815 0.0098369848 0.0064555379
0.0012070624 0.0098696034 0.005917537
0.0036151663 0.0092708366 0.0068266285
0.00599739 0.0079522142 0.0062436741
-0.0056508635 -0.0082101747 0.0083456663
-0.0036738911 -0.0092113884 0.0091107991
-0.0011128739 -0.009883455 0.0089709545
0.00092451175 -0.0099059353 0.0090007028
0.0037785096 -0.0091979625 0.0088328486
0.0056540519 -0.008222539 0.0087715294
-0.0079830438 -0.0059328009 0.008408621
-0.0070346142 -0.0070592756 0.0083050868
0.0070306035 -0.0070673972 0.0087713497
0.0080678621 -0.0058365352 0.0086417319
-0.0092303185 -0.0036126806 0.0086364103
0.0091370549 -0.0038970273 0.0088580661
-0.0099139102 -0.00086455455 0.0091118105
0.0098772394 -0.0010967624 0.0091739437
-0.0098714735 0.0012028675 0.0085926568
0.0098197823 0.001612094 0.008764524
-0.0092757884 0.0035911612 0.0086064925
0.0091040311 0.003986829 0.0085901506
-0.0080493893 0.005829284 0.008863382
-0.0071098832 0.0069911475 0.0086987931
0.0071213329 0.0069647362 0.0095246127
0.0079839332 0.0059587411 0.0084063094
-0.0058784885 0.0080333091 0.0084393434
-0.0035761418 0.00928073 0.0086694118
-0.0014102547 0.0098431213 0.0085335979
0.0012556708 0.0098680789 0.0085916566
0.0034562591 0.0092992978 0.0088952882
0.0058708801 0.0080319708 0.00916267
-0.0058780592 -0.0080229687 0.011522186
-0.0034706146 -0.0093241623 0.011386638
-0.0013305942 -0.0098599568 0.011118743
0.0013158272 -0.0098641831 0.011264294
0.0034987626 -0.009300055 0.011670245
0.0058360342 -0.008064663 0.011524811
-0.0079500414 -0.0059858146 0.011519287
-0.0068656071 -0.0072261901 0.011753246
0.0070703998 -0.0070168264 0.011307395
0.0081301937 -0.005759649 0.010957343
-0.0092390748 -0.0036596931 0.011302133
0.0092357025 -0.0036106191 0.010997997
-0.0098537654 -0.0012720706 0.011082517
0.0099090869 -0.00092303607 0.011652252
-0.0097971763 0.0016955783 0.011244887
0.0098644728 0.0012350515 0.011037665
-0.0091557465 0.0038457841 0.011082062
0.0092039621 0.003756176 0.011434176
-0.0083126305 0.0054862946 0.011170457
-0.0071497206 0.0069487658 0.011576734
0.0073192893 0.0067686131 0.011402013
0.0083651841 0.0054060114 0.011221534
-0.0055262689 0.0082876543 0.011236295
-0.0036685055 0.0092227757 0.010893865
-0.0011759292 0.0098705469 0.011270994
0.0015544666 0.0098337634 0.011153077
0.0035204315 0.0092982864 0.011290972
0.0056754374 0.0081859659 0.011402958
-0.0054540727 -0.0083190724 0.014199122
-0.0037726385 -0.0092068231 0.013822181
-0.00097410567 -0.0098928101 0.014153704
0.0013404521 -0.0098466584 0.013464279
0.0037822388 -0.0091811698 0.013926587
0.005975496 -0.0079517905 0.013654249
-0.0081506278 -0.0057206326 0.013899173
-0.0070064524 -0.00709781 0.013992731
0.0071456539 -0.006949414 0.012715451
0.008215961 -0.0056512244 0.013576001
-0.0091721648 -0.0038419389 0.01388883
0.009273042 -0.0035244683 0.013669137
-0.0098580988 -0.001337351 0.013628118
0.0098918388 -0.00098307873 0.01401236
-0.0098199854 0.0016087331 0.013970926
0.0098140063 0.0016157838 0.013811365
-0.0092074433 0.0037077346 0.013862572
0.009132307 0.0039581414 0.013926604
-0.0081298836 0.0057545123 0.013772842
-0.0069705467 0.0071153864 0.013958372
0.0070213634 0.0070681842 0.014349034
0.0079046777 0.0060387701 0.013549009
-0.0056140348 0.0082326997 0.013735794
-0.0039712586 0.0091028474 0.013801286
-0.0012154165 0.0098718135 0.013610981
0.0011486311 0.0098771583 0.013816737
0.0038435352 0.0091731995 0.013799936
0.0059093437 0.00801118 0.013746073
-0.0057680011 -0.0081153177 0.016086526
-0.0040292405 -0.0090781916 0.016700614
-0.0012109788 -0.0098705813 0.016061824
0.0013877539 -0.00985232 0.016510384
0.0037812744 -0.0091798408 0.015909066
0.0058674412 -0.0080379536 0.016106645
-0.0079656672 -0.005962641 0.016269211
-0.0070846323 -0.0070245848 0.016259134
0.0070461142 -0.0070478879 0.016024832
0.0079652863 -0.0059725493 0.016280273
-0.0092094159 -0.0037415472 0.01633434
0.0093127191 -0.0034443564 0.016314683
-0.009902521 -0.00098970241 0.016410593
0.0098433942 -0.0014100921 0.01622411
-0.0098711178 0.0012510217 0.016392926
0.0098828422 0.0011894939 0.016457627
-0.0093160672 0.0034918657 0.016269621
0.0091290912 0.0039132712 0.016403448
-0.00802946 0.0058827465 0.016211325
-0.0069402382 0.0071742027 0.016365666
0.0069902092 0.007101329 0.016357612
0.0082795434 0.0055538882 0.016081937
-0.0060631302 0.0078771608 0.016309118
-0.0035941754 0.0092234211 0.016215038
-0.0013722592 0.0098445071 0.016388025
0.001219717 0.009856414 0.016419709
0.0039529372 0.009124306 0.015998276
0.0059066676 0.0080044204 0.01629512
-0.0060509937 -0.0079079419 0.01905841
-0.0037243105 -0.009212113 0.01897561
-0.0010914721 -0.0098892087 0.018738624
0.0013400154 -0.0098457523 0.018250849
0.0040445831 -0.0090906639 0.018785551
0.005648884 -0.0081998035 0.019143743
-0.0081079295 -0.0057810619 0.018819343
-0.0072519518 -0.0068449401 0.018717546
0.0070783352 -0.0070159254 0.018556649
0.0081348456 -0.0057627852 0.018376887
-0.0091166636 -0.0040250616 0.018647403
0.009304394 -0.0034840479 0.018441651
-0.0098537523 -0.0013650615 0.018759046
0.0098303007 -0.0014235548 0.018901069
-0.0098511484 0.0013652642 0.018754551
0.0098770084 0.0011517428 0.018444708
-0.0091758138 0.0038172456 0.018795479
0.0091607207 0.0038171613 0.018477166
-0.008181287 0.0056578 0.018859526
-0.0070769619 0.0070324973 0.018802525
0.006905925 0.007189265 0.018803509
0.0080275293 0.0058835074 0.018932657
-0.005556677 0.0082655326 0.018315205
-0.0039522042 0.009129378 0.018495437
-0.0011659431 0.0098763499 0.01855767
0.0014000706 0.009848956 0.018850759
0.0037689556 0.0091814706 0.018699165
0.0060169515 0.007913922 0.018992476
-0.0058717504 -0.0080359615 0.021394586
-0.0035497856 -0.0092844125 0.021330308
-0.00092384376 -0.0099090077 0.021419005
0.0010013509 -0.0098940991 0.021321394
0.0036895922 -0.0092428857 0.021533443
0.0056689442 -0.0081915678 0.021173885
-0.0081205238 -0.0057589919 0.021464271
-0.0069863619 -0.0071119694 0.021720126
0.0071638599 -0.0069335629 0.02086444
0.0077258875 -0.0062731723 0.021354996
-0.0091772685 -0.0038208137 0.021244882
0.0093268948 -0.0034754106 0.021207115
-0.0099037029 -0.00091154134 0.021288607
0.0098377634 -0.0015888147 0.021006972
-0.009892134 0.0010190512 0.021344841
0.0098563442 0.0014206498 0.02090971
-0.0092444718 0.0036490259 0.02112419
0.0092193047 0.0036759053 0.021617964
-0.0083206194 0.005466498 0.021451848
-0.0069556176 0.007148108 0.021810573
0.0069237375 0.0071757738 0.021410856
0.0078620547 0.0060922643 0.021525234
-0.0058016316 0.0081021199 0.021191482
-0.0037256551 0.0092037916 0.021231662
-0.0013436282 0.0098492233 0.021049926
0.001170978 0.0098728379 0.021317393
0.0036625683 0.0092465561 0.021261217
0.0058001438 0.0080882227 0.021186097
-0.005939988 -0.0079770759 0.023535624
-0.0039161532 -0.0091306977 0.023599735
-0.0013059042 -0.0098615726 0.023433369
0.0013815007 -0.0098412819 0.023807524
0.0038315668 -0.009152635 0.023614813
0.0058081215 -0.0080757365 0.023923708
-0.0080046142 -0.0059149042 0.02359399
-0.0069386223 -0.0071611581 0.0237139
0.0069421236 -0.007148996 0.024004929
0.0081741083 -0.0056593432 0.023688441
-0.0091406899 -0.0038616511 0.024125488
0.0090821814 -0.0039818399 0.023278553
-0.0098613556 -0.0013273499 0.024031844
0.0098711988 -0.0011906293 0.024306213
-0.0098717017 0.001275412 0.02416997
0.0098955687 0.0010602924 0.023608604
-0.0091911983 0.0037268698 0.023940353
0.0091728196 0.0038154307 0.023769451
-0.0080949683 0.0057922918 0.024054423
-0.0070708594 0.0070133992 0.023667851
0.006964732 0.0071164761 0.023629017
0.0080316691 0.0058566448 0.023736896
-0.0057939133 0.0081192032 0.023615409
-0.0038758961 0.0091549465 0.023755781
-0.0014168365 0.0098373201 0.024010867
0.0013583415 0.0098430561 0.023478895
0.003516563 0.0093125263 0.023771944
0.0062598777 0.007736797 0.023877671
-0.0058645299 -0.0080514085 0.026000122
-0.0038408875 -0.009168026 0.025962943
-0.0012687788 -0.0098551372 0.026085014
0.001440665 -0.0098454058 0.026515095
0.00380413 -0.0091800597 0.026313256
0.0060019079 -0.0079471236 0.026523191
-0.0080465777 -0.0058796345 0.027029524
-0.0070823827 -0.0070244032 0.026184605
0.0071481988 -0.0069513265 0.026098343
0.0080504334 -0.005860399 0.026114341
-0.0092330668 -0.003634027 0.026599357
0.0091903862 -0.0037174784 0.026340712
-0.0098852813 -0.0010247909 0.02613497
0.0098743998 -0.0011586321 0.026651721
-0.0098628048 0.0012504786 0.025983179
0.0098531535 0.001384723 0.026275365
-0.0093362965 0.0034702665 0.02640699
0.0093966778 0.0032572276 0.025979405
-0.008009362 0.0059075388 0.026143963
-0.0068855342 0.0071952976 0.02647534
0.0069845915 0.0070902449 0.025286749
0.0082164854 0.005642443 0.026169833
-0.0058822311 0.0080285417 0.026541928
-0.0039130771 0.0091264062 0.026400819
-0.00066572556 0.00993443 0.025945038
0.001466639 0.0098388679 0.025922135
0.0037680413 0.0091793407 0.026310781
0.0058953608 0.0080263522 0.026384676
-0.0058215261 -0.0080847554 0.028687445
-0.003277444 -0.0093741277 0.028283944
-0.0014658928 -0.0098373219 0.028539551
0.0012924016 -0.0098675936 0.028430248
0.0038658436 -0.0091403294 0.02894152
0.0058422023 -0.0080551375 0.028378129
-0.0081348522 -0.0057301568 0.028657466
-0.0071141259 -0.0069773244 0.02859275
0.0070216442 -0.0070691393 0.028647479
0.0080200443 -0.0059050196 0.028734628
-0.0093185222 -0.0034899125 0.028956583
0.0092766974 -0.0035596439 0.02901792
-0.0098804915 -0.0011193785 0.028960751
0.009815638 -0.001547739 0.028390974
-0.0098789064 0.0011330602 0.028778361
0.0098608127 0.0013093675 0.028673431
-0.0092492169 0.0036272518 0.029000223
0.0091697471 0.0038323365 0.028911704
-0.0079519032 0.005981761 0.028874636
-0.0073605631 0.0067183217 0.02843475
0.0069872877 0.0071231439 0.029035289
0.0081112189 0.0057777329 0.029031161
-0.0059002563 0.0080290353 0.02875945
-0.0036099819 0.0092484262 0.028934686
-0.0012576458 0.0098659489 0.028769113
0.001282705 0.0098668858 0.029021738
0.0037349588 0.0092018731 0.02862964
0.0059059602 0.008016346 0.02874122
-0.0058588563 -0.0080548655 0.031238144
-0.0041444208 -0.009006775 0.031206561
-0.00114821 -0.0098805549 0.031562168
0.0013647904 -0.0098527223 0.03097189
0.003712374 -0.0092118206 0.031322055
0.0055828285 -0.0082417391 0.030987578
-0.0080387713 -0.0058592712 0.031042499
-0.0071704984 -0.0069352635 0.031138852
0.0070636244 -0.0070307078 0.031183098
0.0082616434 -0.0055580582 0.031730253
-0.0092120962 -0.0037243506 0.030906929
0.0091181705 -0.0039316975 0.031297732
-0.009905722 -0.00094696309 0.03098673
0.0098235831 -0.0014584888 0.031278711
-0.0098245069 0.0014980036 0.031223958
0.0098732403 0.0011863261 0.031104127
-0.0092678387 0.0036198795 0.031076359
0.0091845281 0.0037770793 0.031359717
-0.0081431307 0.0057209278 0.031076495
-0.0071362546 0.0069609885 0.031515665
0.0068540825 0.0072416672 0.030992543
0.0080923149 0.0057907682 0.031545021
-0.0056427587 0.0082101589 0.030468479
-0.0036587517 0.0092175128 0.031684831
-0.001424924 0.0098387916 0.031398553
0.0013746875 0.0098509584 0.031106222
0.0035343613 0.009282846 0.031262483
0.0059798872 0.0079586664 0.030945379
-0.005892803 -0.0080203265 0.033800036
-0.0037162823 -0.0092034778 0.033692971
-0.0013711411 -0.0098455455 0.033510618
0.00096766866 -0.009904691 0.034312565
0.003703757 -0.0092146853 0.033736918
0.0058147758 -0.0080791852 0.033639792
-0.0083229644 -0.005504922 0.03385156
-0.0070847496 -0.0070218919 0.03344224
0.0070706918 -0.0070228628 0.033791427
0.0083050961 -0.0055117044 0.033938371
-0.0091304081 -0.0039067818 0.033834603
0.0090938965 -0.0040251347 0.033881642
-0.009837565 -0.001505634 0.033821903
0.0098410323 -0.0014852748 0.033746921
-0.0098217241 0.0015651799 0.03348159
0.0098372269 0.0013999664 0.033230443
-0.0090375086 0.0041523832 0.033592246
0.0092282193 0.0037111735 0.033806983
-0.0081686461 0.0056888186 0.033989407
-0.0068555982 0.0072312937 0.033682451
0.0068926578 0.0071846507 0.033844069
0.0081046261 0.005784228 0.033143554
-0.005381308 0.0083998749 0.033733077
-0.0038506112 0.0091315443 0.033869538
-0.00098440226 0.009897626 0.03346844
0.0012812208 0.0098594818 0.033788633
0.0037060601 0.009206662 0.033714008
0.0058692624 0.0080453055 0.033610541
-0.0057322662 -0.0081364764 0.036246788
-0.0042649223 -0.0089825895 0.036274247
-0.00092731963 -0.0098910676 0.035642754
0.001401466 -0.0098472638 0.036042165
0.0036172196 -0.0092454506 0.036059521
0.0058700643 -0.0080417441 0.036646433
-0.0079102991 -0.0060249534 0.036297951
-0.007002586 -0.0070907278 0.036544703
0.0071282983 -0.0069528786 0.036736239
0.0077687725 -0.0062209158 0.036423981
-0.0092742741 -0.003563429 0.036358785
0.009230379 -0.0037042231 0.035952963
-0.0098561561 -0.0013480135 0.036328379
0.0098582311 -0.0013311945 0.035953213
-0.0098858867 0.001093177 0.036254317
0.0099082198 0.00091784925 0.036657743
-0.0091440892 0.0038762668 0.03634965
0.0091108987 0.0039692475 0.036230672
-0.0078903083 0.0060592219 0.036746513
-0.0072507514 0.0068412269 0.036372032
0.0071014971 0.0069786953 0.036267493
0.0081005218 0.0057820897 0.036347587
-0.0056879446 0.0081608975 0.036676317
-0.0036794611 0.0092079099 0.036316611
-0.001172204 0.0098811276 0.036069497
0.0014487705 0.0098338583 0.036308125
0.0040165158 0.0090896562 0.036228579
0.00579031 0.0080993967 0.036442012
-0.005938258 -0.0079793185 0.038664009
-0.0035271128 -0.0092841005 0.03885515
-0.0010739997 -0.0098804319 0.038837455
0.0015518666 -0.0098348316 0.038965605
0.0036104785 -0.0092648594 0.038894635
0.0060153059 -0.0079375114 0.0386113
-0.0081139281 -0.0057517956 0.038304232
-0.007067482 -0.0070438725 0.039461046
0.0071079135 -0.0069981324 0.038421717
0.0080573382 -0.0058312151 0.038668066
-0.00919721 -0.0037627399 0.038294673
0.0091673052 -0.0038746635 0.038852938
-0.0098891174 -0.0010454273 0.038683377
0.009845742 -0.0014077097 0.038692202
-0.0098605463 0.0012402375 0.038699824
0.0098938383 0.0010778626 0.038767647
-0.0092219301 0.0037086871 0.038877793
0.0091842813 0.003778114 0.038540751
-0.0080773039 0.0058066482 0.038217612
-0.007105594 0.0069975452 0.03878589
0.0068595768 0.0072321645 0.039316114
0.0079394011 0.0060114693 0.038843155
-0.005537339 0.0082888762 0.038636506
-0.0035958744 0.0092684058 0.038440764
-0.0012672313 0.0098588737 0.038857598
0.0011846808 0.0098618558 0.038739238
0.0034649416 0.0093232589 0.038557399
0.0057243146 0.008147818 0.038817499
-0.0056070378 -0.0082236361 0.040820338
-0.0041489205 -0.0090378737 0.041206654
-0.0010299796 -0.0098933959 0.040986806
0.0014240756 -0.0098401923 0.041609827
0.0038563833 -0.0091492413 0.041122433
0.0056936895 -0.0081707975 0.04085204
-0.008172919 -0.0056850938 0.041236151
-0.0070509668 -0.0070315921 0.041081905
0.0069920979 -0.0070984527 0.041142803
0.0081818141 -0.0056712995 0.041447435
-0.0093149375 -0.003478264 0.041328654
0.0092053981 -0.0037007213 0.041222546
-0.0099064568 -0.0009072845 0.041091323
0.0098097399 -0.0017415431 0.041040607
-0.0098719401 0.0011289251 0.041352253
0.0098408451 0.0014496474 0.041165553
-0.0092213964 0.0037108851 0.041661415
0.0089754602 0.0042622485 0.041553956
-0.0080412403 0.0058659362 0.041365322
-0.0070251375 0.0070827696 0.040808786
0.0069696447 0.0071397391 0.040930435
0.0080370521 0.0058637792 0.041452415
-0.0059996452 0.007931306 0.04107235
-0.0041293479 0.0090290001 0.040976882
-0.0010254586 0.0098934984 0.041328508
0.0012218631 0.0098647121 0.040935624
0.0038056171 0.0091753462 0.041128241
0.0054225945 0.0083721839 0.04176278
-0.0056167808 -0.0082321819 0.043889809
-0.0038178887 -0.0091670994 0.043712936
-0.0010743191 -0.0098890923 0.043425843
0.0011856963 -0.0098627172 0.043676656
0.0038764623 -0.0091524059 0.043654483
0.0059235739 -0.0079825502 0.043756548
-0.0081087938 -0.0057735844 0.043881714
-0.0072143753 -0.0068936264 0.044044346
0.0068947226 -0.0071943649 0.043881487
0.0080105057 -0.005904282 0.043517273
-0.0091337329 -0.0038807131 0.04385066
0.0091377757 -0.0038818035 0.043547817
-0.0099042319 -0.00096930872 0.043696299
0.0098919282 -0.0010304041 0.043585572
-0.009891849 0.0010980574 0.043459442
0.0098865014 0.0010576162 0.043630272
-0.0092368163 0.0036850555 0.043780383
0.0092361281 0.0036543233 0.043623161
-0.0081916573 0.0056579858 0.043827344
-0.0069639916 0.0071192319 0.04419408
0.0068609351 0.0072359596 0.044173189
0.0080933589 0.0058218464 0.043719184
-0.0059199161 0.0079995198 0.04392032
-0.0037810828 0.0091578346 0.043964483
-0.0013225973 0.0098558832 0.044114023
0.0010758822 0.0098896809 0.043814357
0.003419949 0.0093032634 0.043778557
0.0056909774 0.0081622805 0.043549314
-0.0060600629 -0.0079000974 0.046417791
-0.0036716317 -0.0092206886 0.046048008
-0.0013091495 -0.0098702284 0.046428118
0.0010756358 -0.0098912017 0.046665952
0.0041295933 -0.0090507241 0.046180118
0.0057938932 -0.008092369 0.046478521
-0.0079874173 -0.0059539829 0.046019606
-0.0069116778 -0.0071612699 0.046024468
0.0071133724 -0.0069809654 0.0460876
0.0081380969 -0.0057456628 0.046521965
-0.0091503859 -0.0038633856 0.046302214
0.0090871779 -0.0039944816 0.045810096
-0.009889422 -0.0010786277 0.046146248
0.0098953955 -0.0010108284 0.045982312
-0.0098544257 0.0012757479 0.046350718
0.0099077076 0.00090571545 0.046541408
-0.0093069272 0.0035014665 0.046272233
0.0092772488 0.003567968 0.046395525
-0.0078262156 0.0061508771 0.046257272
-0.0070358915 0.0070610321 0.045791376
0.0069991616 0.0070940237 0.046489496
0.0081184255 0.0057798442 0.045842499
-0.0056140632 0.0082322452 0.046510667
-0.0038853246 0.0091250669 0.046479654
-0.0012972914 0.0098596802 0.046346191
0.0016307997 0.0098129474 0.046648573
0.0036261443 0.0092439251 0.04663026
0.0059483801 0.0079886587 0.046324007
-0.0059150723 -0.0079938835 0.048448987
-0.0037242272 -0.0092058815 0.049013332
-0.001163472 -0.0098783905 0.048846219
0.0014268145 -0.0098408116 0.048532236
0.0033238083 -0.0093759941 0.048837718
0.0059473296 -0.0079857418 0.048908889
-0.0080600837 -0.005841549 0.048460174
-0.0069084987 -0.0071920035 0.048443202
0.0071725827 -0.0069201454 0.048138548
0.0078840926 -0.0060776016 0.048171647
-0.0091724461 -0.0037943595 0.048645254
0.0091770841 -0.0037615441 0.048453487
-0.0098947762 -0.00099071988 0.04877558
0.0098606655 -0.0013028078 0.048616525
-0.0098362919 0.0013933971 0.048415542
0.0098650586 0.0012719736 0.049229391
-0.009017922 0.0041833273 0.048533566
0.0091603501 0.0038414514 0.048857823
-0.0080072237 0.0059008119 0.048975144
-0.0069980128 0.0071310266 0.049058825
0.006903497 0.0071831592 0.048737273
0.0081823859 0.0057006711 0.048634402
-0.0059686392 0.0079483781 0.049266886
-0.0038514854 0.0091425115 0.049042061
-0.0014115903 0.0098240944 0.048474893
0.00091081223 0.0099054072 0.048785426
0.0039866362 0.00911122 0.048943482
0.0058660149 0.0080547659 0.048784703
-0.0054559004 -0.0083469227 0.051336072
-0.0036619306 -0.0092348112 0.051316109
-0.0017485253 -0.009801995 0.051434215
0.0012439224 -0.0098661203 0.051095381
0.0040272903 -0.0091000833 0.050745517
0.0058935615 -0.0080113551 0.05113605
-0.0081314957 -0.0057308311 0.051291991
-0.006949909 -0.0071302094 0.050904285
0.0071566086 -0.0069296686 0.05113893
0.0080753965 -0.005805749 0.051482558
-0.0092468141 -0.0036542434 0.051183946
0.0090546124 -0.0040932954 0.051363833
-0.0098838797 -0.0011073592 0.051265921
0.0098575074 -0.0013136729 0.051263023
-0.0098414747 0.0013922051 0.051341992
0.0098226313 0.0015622512 0.051037654
-0.0091595044 0.0038857204 0.051215198
0.0090782968 0.0040032109 0.051291224
-0.0080825323 0.0057908311 0.051253933
-0.0070444578 0.0070642084 0.050841801
0.0068833302 0.0071902424 0.051205918
0.0080271009 0.0058992719 0.051312726
-0.0056201108 0.0082198447 0.051049631
-0.0038741168 0.0091545042 0.051443126
-0.0014324447 0.009843776 0.051634412
0.0015055198 0.0098260408 0.050929423
0.003421247 0.0093438476 0.051474586
0.0057670679 0.0081164548 0.051199161
-0.0060811448 -0.0078626443 0.053976644
-0.0039455374 -0.0091121076 0.053607762
-0.0015742677 -0.0098263072 0.054518756
0.0012516575 -0.0098669808 0.053465549
0.0038390132 -0.0091418521 0.053668916
0.0058426713 -0.0080638248 0.054135192
-0.0079965806 -0.0059324889 0.054144032
-0.0070596379 -0.0070338268 0.053826366
0.0069907252 -0.0071142702 0.053559586
0.0083309105 -0.0054734903 0.053608596
-0.0092191957 -0.0037494083 0.053538442
0.0090819634 -0.0040160362 0.053745534
-0.0098150149 -0.0016122882 0.053871486
0.0098857451 -0.00110192 0.053848047
-0.0099127358 0.00088599912 0.05333031
0.0098559419 0.0012472934 0.053860482
-0.0091782818 0.0038220098 0.053437117
0.0091156159 0.0039927638 0.053651728
-0.0081883753 0.0056695058 0.053887542
-0.0071289465 0.0069559808 0.053756431
0.0070029246 0.0070965048 0.053302329
0.0079716258 0.0059737377 0.053637199
-0.0057834531 0.0081106303 0.05416346
-0.0038234578 0.009182049 0.053720154
-0.0011034597 0.0098836301 0.053902742
0.0011845451 0.0098659107 0.05367808
0.0034598291 0.0093095908 0.053651601
0.0060399938 0.0079172505 0.053408068
-0.0055143679 -0.008308542 0.056324065
-0.0039735339 -0.0091105727 0.056532875
-0.0010464421 -0.0098877586 0.056515437
0.0016371282 -0.0098083541 0.056368906
0.0041656457 -0.0090328008 0.056147266
0.0055229776 -0.0082915947 0.056347024
-0.0081370324 -0.0057543139 0.0562163
-0.0070472285 -0.0070421901 0.056297831
0.0070071141 -0.0070850328 0.056165606
0.0082565406 -0.0055740802 0.056087844
-0.0091200015 -0.0038995841 0.055863522
0.0091210455 -0.0039688717 0.056166757
-0.0098362388 -0.0014813681 0.056200277
0.0098536508 -0.0013575574 0.056440867
-0.0098720044 0.0012078268 0.056088224
0.009852075 0.0014384802 0.055763017
-0.0091989953 0.0037485049 0.056282766
0.0091961976 0.0037376557 0.056155525
-0.007882894 0.0060624112 0.055787444
-0.0069841449 0.0071205734 0.055159781
0.007040435 0.0070611504 0.056465089
0.0081002554 0.0057680081 0.056182709
-0.0056368555 0.0082058851 0.056068223
-0.003976359 0.0091039538 0.056117941
-0.0014488313 0.0098343911 0.056391608
0.0020520203 0.0097483583 0.056372005
0.0039281356 0.0091380058 0.056436494
0.0055992915 0.0082457103 0.056071714
-0.0055916365 -0.0082530687 0.058928985
-0.0038070073 -0.0091677438 0.058897629
-0.0017077643 -0.0097896494 0.058939707
0.00075236137 -0.0099258982 0.058579016
0.0036677558 -0.0092394883 0.058604531
0.0056731743 -0.0081715723 0.058698181
-0.0079514943 -0.0059715547 0.058806106
-0.0070515322 -0.0070419745 0.058970392
0.0070620696 -0.0070282118 0.058998872
0.0080410996 -0.0058633699 0.058700055
-0.0092972675 -0.0035473562 0.058650091
0.0090682833 -0.0040838099 0.059002113
-0.0098317033 -0.001527602 0.058821782
0.0098614367 -0.0012764032 0.058703106
-0.0098758657 0.0011827992 0.058391452
0.0098312963 0.0016367403 0.059101056
-0.0091017727 0.0039730254 0.05906909
0.0091868117 0.0038006578 0.058842041
-0.0081038084 0.0057855556 0.05875903
-0.0071830302 0.006928856 0.05889063
0.0070141302 0.0070990119 0.058736388
0.0081819147 0.0057096248 0.058954373
-0.0058815926 0.0080269286 0.058571134
-0.0034789513 0.0092932237 0.058853015
-0.0011660681 0.0098851509 0.058609165
0.0011975379 0.0098717036 0.058802985
0.0042114924 0.0089995293 0.058791172
0.0059855753 0.0079428572 0.059243567
-0.0058623208 -0.0080568558 0.061381809
-0.0035087566 -0.0092692757 0.061076768
-0.00093381893 -0.0099070808 0.061272327
0.0011825868 -0.0098642176 0.061117008
0.0038434162 -0.0091664707 0.061464429
0.0057885447 -0.0080962637 0.061181094
-0.0081354957 -0.0057394626 0.061331458
-0.0070054433 -0.0070920661 0.061285656
0.0071944133 -0.0068999706 0.060796034
0.0079733673 -0.0059646522 0.060934778
-0.0092254477 -0.0036783097 0.061193679
0.0091473563 -0.0038829267 0.061632175
-0.0098670116 -0.0012730822 0.061377615
0.0099296886 -0.00071386498 0.061067004
-0.0098728063 0.0012044746 0.06120972
0.009850868 0.0014003073 0.061173242
-0.0092024496 0.0037271974 0.061123319
0.0092200227 0.0037096792 0.061475553
-0.0080760019 0.0058073155 0.061397061
-0.0069169952 0.0071910094 0.061683543
0.0070853359 0.0070074908 0.061251681
0.0081927385 0.0056674369 0.061116364
-0.0057334513 0.0081242304 0.060975693
-0.0040922971 0.0090536261 0.061304122
-0.0010497998 0.0098885456 0.061545946
0.001529458 0.0098270215 0.061042458
0.0039383816 0.0091274828 0.060988404
0.0057915463 0.0080877477 0.061560016
-0.0057093115 -0.0081726704 0.063958727
-0.0035843917 -0.0092770793 0.063645184
-0.0013200983 -0.0098462766 0.063624755
0.0013856407 -0.0098510301 0.063712485
0.0043028439 -0.0089653945 0.06392885
0.0055646556 -0.0082816128 0.063592687
-0.0080044381 -0.005918961 0.064170219
-0.0071556713 -0.0069577498 0.063398741
0.00706144 -0.0070297993 0.06439545
0.0080724871 -0.0058208602 0.063488014
-0.0092599308 -0.0035928935 0.063517369
0.0092997709 -0.0035085024 0.064160861
-0.0098876031 -0.0010443022 0.063606411
0.009896419 -0.0010008003 0.063563257
-0.0098775309 0.0011753764 0.064060666
0.0098264497 0.0014402042 0.063666962
-0.0091317259 0.003922482 0.063855566
0.0091281161 0.0038962266 0.063954443
-0.0080122761 0.0059039807 0.063426472
-0.0069023245 0.0071840198 0.063734569
0.0068286061 0.0072700549 0.062882468
0.0078895455 0.0060690884 0.063555986
-0.0056810305 0.0081813876 0.063741416
-0.0035859649 0.0092720669 0.063462369
-0.00080323895 0.0099148909 0.063386939
0.0014946833 0.009829645 0.063275442
0.0037177755 0.0092191231 0.063759714
0.0057552205 0.0081110168 0.063746229
-0.0056611779 -0.0081989598 0.066069774
-0.0034369768 -0.0093141021 0.066137739
-0.0015169088 -0.0098365461 0.066167757
0.0015804059 -0.0098367296 0.066070139
0.0039515221 -0.0091174794 0.065838054
0.0058318027 -0.0080714244 0.066317648
-0.0080027692 -0.0058999956 0.066237621
-0.007077117 -0.0070240423 0.065754578
0.0070495196 -0.007056762 0.066163093
0.0081843743 -0.0056736083 0.066516846
-0.0091426233 -0.003871205 0.066219524
0.0092241419 -0.0036827279 0.066285409
-0.0098705888 -0.0012327648 0.066211827
0.0098283747 -0.0015380114 0.066544861
-0.0097987866 0.0016974643 0.066015095
0.0098657561 0.0013203166 0.066364579
-0.0091527076 0.0038560876 0.066399269
0.0092847692 0.0035510038 0.066302121
-0.0085628238 0.0050914935 0.065761924
-0.0070689693 0.0070388778 0.066670597
0.0071043293 0.0069889352 0.065896675
0.0080515398 0.0058584064 0.066269666
-0.0060295686 0.0079258066 0.066306248
-0.0041108984 0.0090472288 0.066566803
-0.0012214474 0.0098727848 0.066515274
0.0010806727 0.0098863961 0.066396818
0.0036816343 0.0092231408 0.066071808
0.0057171979 0.0081536993 0.065646447
-0.0058222697 -0.0080718808 0.068492532
-0.0038844808 -0.0091117052 0.068527453
-0.0012346874 -0.0098727951 0.068956442
0.0010132132 -0.0098956032 0.069045328
0.0035691287 -0.0092735505 0.068231501
0.0056329537 -0.0082055479 0.068938024
-0.0081590675 -0.0057075825 0.068612508
-0.0072687925 -0.0068301437 0.068703502
0.0070559387 -0.0070362557 0.068860546
0.0080390768 -0.0058713388 0.068665884
-0.0092470869 -0.0036238765 0.068745971
0.0091381148 -0.0038557516 0.068522073
-0.0098764701 -0.0012110699 0.068885729
0.0098745711 -0.0012734802 0.068688139
-0.0098937629 0.00097488501 0.068664767
0.0098255435 0.001526733 0.068766937
-0.0092097903 0.0036934784 0.068863139
0.0092166942 0.0037040545 0.06848257
-0.0081547899 0.005722912 0.068964019
-0.0072045936 0.0068800994 0.068727292
0.0071913875 0.0069021434 0.068495035
0.0082219131 0.00563019 0.068842255
-0.005771915 0.0080930395 0.068936035
-0.0037357982 0.0091946525 0.068204217
-0.001039091 0.0098857619 0.06859006
0.0011468641 0.0098692132 0.068759643
0.0034333917 0.0093268473 0.068665199
0.0060012126 0.0079336157 0.068827376
-0.0056234156 -0.0082284519 0.071401767
-0.0037609178 -0.0092036016 0.071369819
-0.0014060945 -0.0098536126 0.071096949
0.0011450477 -0.0098759243 0.07129287
0.0039333687 -0.0091303 0.071283795
0.00573307 -0.0081639858 0.070710085
-0.0080436748 -0.0058672028 0.071471639
-0.0069734366 -0.007131496 0.071320273
0.0071206382 -0.0069534541 0.07112518
0.0079671163 -0.0059733735 0.071324743
-0.0092648221 -0.0035879072 0.071100608
0.0091965338 -0.0037359593 0.071204565
-0.0098462142 -0.0014407896 0.071347781
0.0098541863 -0.0013019108 0.071365193
-0.0098727718 0.0012342589 0.071674459
0.0098838815 0.0010971087 0.071213461
-0.0091991862 0.0037483743 0.071405962
0.0092404298 0.0036460271 0.071468927
-0.0082725612 0.0055318298 0.071548142
-0.0068454519 0.0072457134 0.071257211
0.0070583588 0.0070371935 0.07109534
0.0081047416 0.0057743895 0.071374647
-0.0056424448 0.0081964219 0.071177065
-0.0041035521 0.0090388702 0.071434401
-0.0008987097 0.0099058077 0.071215004
0.0016557062 0.0098089864 0.071072392
0.0038093312 0.0091760196 0.071209244
0.0060432726 0.0079145608 0.071858875
-0.0058430252 -0.0078732437 0.073338568
-0.0038518454 -0.0087339738 0.073863916
-0.0010640589 -0.0092529058 0.073637336
0.0011983786 -0.0091182375 0.073706254
0.0037693726 -0.0085803838 0.07385841
0.0056014098 -0.008261404 0.073463723
-0.0082018096 -0.0055959504 0.073334053
-0.0063875173 -0.0064151459 0.073915131
-0.0037937185 -0.0062963152 0.074000001
-0.00098035042 -0.0062909634 0.074000001
0.0013511999 -0.0061821854 0.074000001
0.0035743683 -0.0062413178 0.074000001
0.0062767407 -0.0063331542 0.073875919
0.0080110058 -0.0055803694 0.073883638
-0.0085265879 -0.0036014677 0.073731475
-0.0062744012 -0.0034298203 0.074000001
-0.0038531118 -0.0037349134 0.074000001
-0.00085570849 -0.0035383643 0.074000001
0.0010483841 -0.0038284473 0.074000001
0.0041581225 -0.0035889656 0.074000001
0.0060195457 -0.0038022939 0.074000001
0.0089305928 -0.0036842059 0.073577955
-0.0093188845 -0.0014002142 0.073664732
-0.0061457762 -0.0012295201 0.074000001
-0.0039851321 -0.00090070418 0.074000001
-0.00093845464 -0.00085221557 0.074000001
0.001395835 -0.00085555087 0.074000001
0.0036880064 -0.0012232552 0.074000001
0.0062258746 -0.0010416826 0.074000001
0.0089209732 -0.001614321 0.073835813
-0.0091356551 0.0012712466 0.07369975
-0.006298929 0.0011013629 0.074000001
-0.0034237679 0.00095332135 0.074000001
-0.0012295902 0.001348184 0.074000001
0.0018201816 0.0013741904 0.074000001
0.0040488229 0.0011781771 0.074000001
0.0062551517 0.0015007998 0.074000001
0.0093114087 0.00099254108 0.073604584
-0.0084583759 0.0038246552 0.073778041
-0.0064965901 0.0036863657 0.074000001
-0.0039013131 0.0038087799 0.074000001
-0.0015920792 0.0036888912 0.074000001
0.00091909972 0.0041754539 0.074000001
0.0036914721 0.0037643227 0.074000001
0.006526845 0.0039317468 0.074000001
0.0086018657 0.0036626114 0.073538251
-0.0078125028 0.0059072888 0.073462404
-0.0062226155 0.0063073267 0.073863916
-0.0039003589 0.0063102078 0.074000001
-0.0014190081 0.0064527891 0.074000001
0.0011373928 0.0060087023 0.074000001
0.0038074404 0.0059953541 0.074000001
0.0062170029 0.0061236499 0.073855229
0.0079960218 0.0059400667 0.073409706
-0.005560867 0.008009579 0.07371451
-0.003661125 0.0088295592 0.073634289
-0.0010056262 0.0090118367 0.073700614
0.0013936011 0.0093425736 0.073581092
0.0038646569 0.0087950742 0.073622227
0.0055580717 0.0081702601 0.073633991
