# .PCD v0.7 - Point Cloud Data file format
VERSION 0.7
FIELDS x y z
SIZE 4 4 4
TYPE F F F
COUNT 1 1 1
WIDTH 455
HEIGHT 1
VIEWPOINT 0 0 0 1 0 0 0
POINTS 455
DATA ascii
-0.010473788 -0.0053862724 0.0017758885
-0.0087045794 -0.0054432331 0.00093763147
-0.0061889798 -0.0054540811 0.0012626512
-0.0037638329 -0.0054755881 0.0013538328
-0.0012001328 -0.0054703248 0.0013543798
0.0011331374 -0.0054246569 0.00098271435
0.0038160158 -0.005461595 0.00090494525
0.0061060619 -0.0054487907 0.00095587072
0.0086406656 -0.0054578031 0.0011451513
0.010239368 -0.0053937249 0.0011192072
-0.01044228 -0.0036113248 0.0014314463
-0.0087845707 -0.0038069303 4.7145346e-05
-0.0061942609 -0.0033999078 4.6711109e-05
-0.0039748298 -0.0037283332 4.6711099e-05
-0.0010290119 -0.0036214439 4.6711095e-05
0.0016142131 -0.003604284 4.6711099e-05
0.0039326865 -0.0036677057 4.6711102e-05
0.0062354673 -0.0039239516 4.6711106e-05
0.0087583018 -0.0034928687 4.6711106e-05
0.010401124 -0.0038775769 0.0013047816
-0.010435594 -0.0010904799 0.0014108632
-0.0086010741 -0.0011795639 4.6711099e-05
-0.0063493047 -0.0012322946 4.6711099e-05
-0.0034749866 -0.0012688622 4.6711088e-05
-0.001396444 -0.001338623 4.6711099e-05
0.0013924066 -0.00096220488 4.6711109e-05
0.0038148209 -0.0009510711 4.6711102e-05
0.0062790373 -0.0013242712 4.6711106e-05
0.0088698603 -0.001271505 4.7407972e-05
0.010384076 -0.0011707239 0.0012523163
-0.010443457 0.0012447149 0.001435076
-0.0086727813 0.0012956798 4.6711106e-05
-0.0059060841 0.0010465125 4.6711106e-05
-0.0037280386 0.0013846518 4.6711099e-05
-0.0012463941 0.0013306298 4.6711091e-05
0.0011586098 0.0014142097 4.6711095e-05
0.00371588 0.0012415684 4.6711099e-05
0.0062790508 0.0010682871 4.6711109e-05
0.008634042 0.0010579583 4.6711099e-05
0.010487946 0.0010302849 0.0015719933
-0.010397615 0.0037413882 0.001293978
-0.0086447569 0.0038282936 4.6711091e-05
-0.0063784588 0.0037888004 4.6711102e-05
-0.0037610994 0.00370439 4.6711091e-05
-0.0012020792 0.0038668893 4.6711095e-05
0.001215926 0.0038091566 4.6711106e-05
0.0036217629 0.0039466601 4.6711102e-05
0.0064497818 0.0038080995 4.6711109e-05
0.0085059451 0.0035134121 4.6711102e-05
0.010324917 0.0037318617 0.0010702396
-0.010381036 0.0054248101 0.001807499
-0.0086658979 0.0054400135 0.0011197426
-0.0061722067 0.0054613953 0.0009239316
-0.0038034988 0.0054406864 0.00076911366
-0.001070693 0.0054716645 0.001036273
0.0013747518 0.0054736673 0.0013002835
0.0036785943 0.0054679038 0.0011601242
0.0062228981 0.005446496 0.00099031278
0.0085630547 0.0054598027 0.0010059838
0.010343782 0.0053351666 0.0013240752
-0.010542708 -0.005462612 0.0035468601
-0.0085986871 -0.0055000014 0.0037320345
-0.0064563248 -0.0055000014 0.0038107717
-0.0035519849 -0.0055000018 0.0035113965
-0.0010044097 -0.0055000023 0.003618086
0.0013789212 -0.0055000023 0.0039824378
0.0038295693 -0.0055000014 0.0034007002
0.006364096 -0.0055000023 0.0037834046
0.008807187 -0.0055000009 0.0035272532
0.010926975 -0.0054135933 0.0039003596
-0.011287256 -0.0037843212 0.0040320032
0.011184785 -0.0036050724 0.0037166264
-0.011159371 -0.0012386213 0.0036384033
0.011260177 -0.001022819 0.0039486578
-0.011228344 0.0012541329 0.0038506882
0.011089245 0.0015278629 0.0034225879
-0.011258778 0.0038527197 0.0039443597
0.011142771 0.0038108327 0.0035873221
-0.010849812 0.0053733885 0.0038532086
-0.0087438822 0.0055000018 0.0040044249
-0.0062748888 0.0055000018 0.0037612021
-0.003785332 0.0055000028 0.0035180403
-0.0012279205 0.0055000009 0.003549878
0.0013069974 0.0055000023 0.0036330405
0.0037656061 0.0055000018 0.003857139
0.0064255577 0.0055000018 0.0036250278
0.0086013572 0.0055000018 0.0038386553
0.010822906 0.0053861025 0.0038298075
-0.01110848 -0.005475088 0.006538135
-0.0087543735 -0.0055000018 0.0062760059
-0.0063260132 -0.0055000014 0.0062377984
-0.0038510251 -0.0055000014 0.0062850779
-0.0016461154 -0.0055000014 0.0063182479
0.0013971725 -0.0055000018 0.006164771
0.0037438523 -0.0055000023 0.0063619125
0.0061739259 -0.0055000009 0.0061762021
0.0088744396 -0.0055000018 0.0060690716
0.011186465 -0.0054441444 0.0060846563
-0.012022866 -0.003631203 0.0062959651
0.012008104 -0.0036974146 0.0062505309
-0.012046333 -0.0011345255 0.0063681873
0.011987745 -0.0014887584 0.0061878767
-0.012010208 0.001391882 0.0062570046
0.012008606 0.0012911283 0.0062520672
-0.012028815 0.0035274227 0.0063142693
0.012042517 0.0037548842 0.0063564447
-0.011107068 0.0054487418 0.0063250707
-0.0089333607 0.0055000023 0.0063236998
-0.0061557773 0.0055000014 0.0062560574
-0.0039873496 0.0055000023 0.0061116968
-0.0012543511 0.0055000018 0.0063337702
0.0013647766 0.0055000018 0.0061469893
0.0037684122 0.0055000014 0.0059432676
0.0062594404 0.0055000014 0.0059986883
0.0086164074 0.0055000018 0.0063794362
0.011228851 0.0054095448 0.0063400296
-0.012787963 -0.0054501346 0.0093229022
-0.011259231 -0.0055000018 0.0085194604
-0.0087743374 -0.0055000023 0.0086959815
-0.0063924771 -0.0055000018 0.0087988973
-0.003700926 -0.0055000018 0.008733361
-0.0013860152 -0.0055000014 0.0089565003
0.0010060997 -0.0055000023 0.0086174663
0.0038369249 -0.0055000014 0.0086035402
0.0061802673 -0.0055000028 0.0087523842
0.0088858679 -0.0055000018 0.0086740339
0.01099352 -0.0055000018 0.0087270048
0.012969229 -0.0053214687 0.0093288543
-0.012844617 -0.0035747341 0.0088250348
-0.012443644 -0.0033614973 0.0075909756
0.012443927 -0.0043517873 0.0075918473
0.012809537 -0.0035679347 0.0087170778
-0.012832337 -0.0013102934 0.0087872464
-0.012441813 -0.000588411 0.0075853379
0.012454134 -0.0013843849 0.0076232604
0.012889281 -0.0013148731 0.0089625027
-0.012813509 0.0016244313 0.0087292939
-0.012446785 0.00086942862 0.0076006469
0.012465514 0.0011414684 0.0076582851
0.012854948 0.0013418096 0.0088568274
-0.0128856 0.0037119424 0.0089511694
-0.01243597 0.0035607729 0.0075673568
0.012474943 0.0040966752 0.007687306
0.012896387 0.0037760844 0.0089843618
-0.012903002 0.0052702557 0.0091998158
-0.011332477 0.0055000018 0.0086500971
-0.0085561853 0.0055000023 0.0087957354
-0.006015853 0.0055000018 0.0088102557
-0.0037651844 0.0055000018 0.0086678071
-0.001345097 0.0055000018 0.0089029288
0.0013868107 0.0055000023 0.0086822873
0.0034831814 0.0055000018 0.0087426342
0.0062034489 0.0055000009 0.0091331201
0.0089752004 0.0055000023 0.0087703755
0.01112733 0.0055000018 0.0087127257
0.012786685 0.0052345358 0.0086467424
-0.013245637 -0.0054843682 0.011321815
-0.011069962 -0.0055000023 0.01102703
-0.0087972833 -0.0055000018 0.011344885
-0.0062877936 -0.0055000023 0.011456458
-0.003531365 -0.0055000023 0.011252059
-0.0012487206 -0.0055000023 0.011245901
0.0013446792 -0.0055000014 0.011197371
0.0037126169 -0.0055000018 0.011095211
0.0061579212 -0.0055000023 0.011594783
0.0086598909 -0.0055000018 0.011040602
0.011334884 -0.0055000014 0.011097835
0.012774806 -0.0055 0.011607236
-0.013542127 -0.0035249291 0.010971744
0.013659351 -0.0037389749 0.011332513
-0.013667472 -0.001190628 0.011357509
0.013612193 -0.0014536316 0.011187377
-0.013587348 0.0013928839 0.01111092
0.013632596 0.0012044604 0.011250178
-0.013710961 0.0035733662 0.011491352
0.013600998 0.0040116226 0.011152922
-0.013221203 0.0053858701 0.011201591
-0.011234478 0.0055000018 0.011282157
-0.0085191308 0.0055000018 0.011261508
-0.0061343401 0.0055000023 0.011455831
-0.0036895687 0.0055000018 0.011127505
-0.0012559145 0.0055000023 0.011248338
0.0011354381 0.0055000014 0.011066827
0.0037545389 0.0055000014 0.011212016
0.0065169944 0.0055000023 0.011205273
0.0085706199 0.0055000009 0.011148551
0.011296686 0.0055000014 0.011090973
0.013410279 0.0054385345 0.011312917
-0.013646604 -0.0054503977 0.0138244
-0.011245182 -0.0055000023 0.0138223
-0.0085926335 -0.0055000018 0.013765836
-0.006165104 -0.0055000018 0.013887268
-0.0038397249 -0.0055000014 0.013545896
-0.0013044375 -0.0055000023 0.013841869
0.0013001887 -0.0055000023 0.013471195
0.003984374 -0.0055000014 0.013806424
0.0061133322 -0.0055000023 0.013776177
0.009024593 -0.0055000018 0.013862101
0.011417108 -0.0055000014 0.013798619
0.013669818 -0.005425062 0.013737089
-0.014472535 -0.003737624 0.013835224
0.014441962 -0.0038193103 0.013741129
-0.014479413 -0.0015510777 0.013856391
0.014474036 -0.0013938053 0.013839846
-0.014371488 0.00133262 0.013524233
0.014421726 0.0013886575 0.013678851
-0.014492821 0.0037751542 0.013897658
0.01444573 0.0035836303 0.013752726
-0.013652295 0.0054644914 0.013897267
-0.011372558 0.0055000018 0.013865635
-0.0086622899 0.0055000023 0.013780286
-0.0062484448 0.0055000018 0.013964724
-0.0037929367 0.0055000014 0.01387741
-0.0010731926 0.0055000018 0.013793002
0.0013595254 0.0055000014 0.013762315
0.0038922853 0.0055000023 0.013840294
0.0061308178 0.0055000018 0.013708203
0.0088865682 0.0055000023 0.013741962
0.010904939 0.0055000018 0.013885196
0.013592021 0.0055000004 0.013818463
-0.015293121 -0.0054220199 0.016652703
-0.013616234 -0.0054984209 0.016274558
-0.011205398 -0.0055000018 0.016114512
-0.0085904775 -0.0055000014 0.016639385
-0.0064232745 -0.0055000018 0.0161711
-0.00391006 -0.0055000018 0.01635801
-0.0013073438 -0.0055000018 0.016111875
0.0013600603 -0.0055000018 0.016342122
0.003507823 -0.0055000018 0.016301664
0.0061432151 -0.0055000018 0.015969561
0.0088302987 -0.0055000023 0.01633759
0.011179308 -0.0055000018 0.016261321
0.013719346 -0.0055000014 0.016086942
0.015336996 -0.005286742 0.016495746
-0.01533608 -0.003534718 0.016492931
-0.014876376 -0.0036892914 0.015078112
0.01491456 -0.0037559636 0.015195631
0.015343321 -0.003764946 0.01651521
-0.015401628 -0.0013993994 0.016694667
-0.014934148 -0.00068954343 0.015255913
0.014892966 -0.0020387759 0.015129169
0.015357042 -0.0014150846 0.016557436
-0.015262973 0.0014655035 0.016267927
-0.014935962 0.0015009186 0.015261495
0.014963596 0.00074589159 0.015346548
0.015269483 0.0012647085 0.016287964
-0.015297013 0.0040423525 0.016372694
-0.014937864 0.0046391706 0.015267354
0.014931913 0.0037749687 0.015249041
0.015338128 0.003833754 0.016499227
-0.015274993 0.00539607 0.016322808
-0.01370781 0.0054954281 0.015893087
-0.011366718 0.0055000018 0.016197124
-0.0086753434 0.0055000014 0.016273761
-0.0062037329 0.0055000023 0.016065147
-0.0035394221 0.0055000023 0.016326254
-0.0011948139 0.0055000023 0.016315538
0.0011700952 0.0055000018 0.016425176
0.0038511616 0.0055000014 0.01626532
0.005977354 0.0055000023 0.016273594
0.008731815 0.0055000023 0.016369043
0.011220638 0.0055000018 0.016310336
0.013835943 0.0054681441 0.016136138
0.015338005 0.0052963644 0.016760219
-0.01555906 -0.0054101129 0.018767664
-0.013856962 -0.0055000009 0.018812176
-0.011348279 -0.0055000018 0.018816113
-0.0085193133 -0.0055000023 0.018602008
-0.0064571174 -0.0055000018 0.018887235
-0.0036891431 -0.0055000014 0.018744551
-0.0010652276 -0.0055000023 0.018757654
0.0013271279 -0.0055000023 0.01864483
0.0040174345 -0.0055000018 0.018699747
0.0064042434 -0.0055000023 0.018671194
0.0088587422 -0.0055000014 0.018463042
0.010975143 -0.0055000009 0.018451318
0.013761571 -0.0055000023 0.01877238
0.015569426 -0.0053506279 0.018811323
-0.015778147 -0.0039236979 0.018828103
-0.014915827 -0.0032992761 0.019963056
0.014981868 -0.0049222345 0.019915074
0.015786206 -0.0037517978 0.018811105
-0.015781755 -0.001288343 0.018751258
-0.014904058 -0.0014246812 0.019971605
0.014940609 -0.0014646254 0.01994505
0.015821522 -0.0010281694 0.018774958
-0.015815087 0.0014334529 0.018842494
0.015784837 0.0012547686 0.018639149
-0.015882934 0.0037027264 0.018670177
0.014903333 0.0032934365 0.019972133
0.015716217 0.0037064122 0.018869812
-0.015555406 0.0052986699 0.018897779
-0.013888281 0.0055000023 0.018798523
-0.011235375 0.0055000018 0.018645022
-0.008980602 0.0055000023 0.018552529
-0.006375419 0.0055000014 0.018910263
-0.0038245728 0.0055000023 0.018805232
-0.0012504986 0.0055000014 0.018728573
0.0011687876 0.0055000018 0.018770471
0.0038633596 0.0055000018 0.018571179
0.0064214971 0.0055000023 0.018786227
0.0086924331 0.0055000023 0.018818244
0.011104685 0.0055000014 0.018669272
0.013538712 0.0055000004 0.018703267
0.015576978 0.0053990381 0.018464521
-0.013550806 -0.005384509 0.020606462
-0.01137256 -0.0054645292 0.021290457
-0.008946999 -0.0055000023 0.021246824
-0.0060608 -0.0055000018 0.021041922
-0.0038564678 -0.0055000014 0.021069551
-0.00098911347 -0.0055000018 0.021419125
0.0013159157 -0.0055000018 0.021157786
0.003793922 -0.0055000018 0.021189822
0.0064420253 -0.0055000023 0.021325126
0.0087803053 -0.0055000028 0.021017576
0.011365515 -0.0054459753 0.021691903
0.013672731 -0.0053889169 0.020462176
-0.013590031 -0.0036201007 0.0209263
-0.011842708 -0.0040278295 0.022195797
0.012090223 -0.0039420985 0.022015968
0.013655218 -0.0041059507 0.020878937
-0.013709908 -0.0011713509 0.020839203
-0.01195674 -0.0010650543 0.022112949
0.012081726 -0.0011684258 0.022022143
0.013902417 -0.0011346337 0.020699335
-0.013575687 0.0016548423 0.020936718
-0.012100569 0.0012604126 0.022008451
0.012048556 0.0015905995 0.02204624
0.013921776 0.0011110676 0.020685274
-0.013700143 0.0038814011 0.020846298
-0.012088414 0.0039092693 0.022017285
0.011983637 0.0035962509 0.022093408
0.013527965 0.0037025902 0.020971391
-0.013617918 0.0053654779 0.020605199
-0.011342616 0.0054669385 0.021329004
-0.0089296941 0.0055000023 0.021287309
-0.0059386045 0.0055000014 0.021330073
-0.0041160057 0.0055000018 0.021098297
-0.0012235197 0.0055000014 0.021053284
0.0014227674 0.0055000018 0.021258853
0.0037552125 0.0055000014 0.021269942
0.0062182597 0.0055000018 0.020875053
0.0090258205 0.0055000018 0.020927448
0.011248071 0.0055000023 0.021208405
0.0134343 0.005464172 0.020693431
-0.010327986 -0.0055 0.022699887
-0.0085208872 -0.0054302928 0.023469903
-0.0059372317 -0.0055000018 0.023868212
-0.0038421752 -0.0055000023 0.02362643
-0.0012733855 -0.0055000023 0.023751318
0.0012546727 -0.0055000014 0.023584891
0.0037464923 -0.0055000023 0.023730682
0.0064210044 -0.0055000018 0.024181319
0.0089031812 -0.0054658712 0.023571298
0.01074068 -0.0054434245 0.022805013
-0.01075619 -0.0037222086 0.022985198
-0.0088163111 -0.0039832485 0.024394596
0.0088103712 -0.0035253977 0.024398915
0.010939566 -0.003772272 0.022851966
-0.010643387 -0.0012894985 0.023067158
-0.009005256 -0.0014546452 0.024257319
0.0091370381 -0.0012467185 0.024161573
0.010736864 -0.001196323 0.022999234
-0.01067655 0.0010882928 0.023043063
-0.0088486066 0.0012240526 0.024371134
0.0089311218 0.0011397189 0.024311185
0.010832933 0.0015282754 0.022929439
-0.010788769 0.0037399963 0.022961527
-0.0088614896 0.0039639059 0.024361774
0.0091238329 0.0038007433 0.024171168
0.010583105 0.0037257608 0.02311095
-0.010646193 0.0053963908 0.023011118
-0.0085495906 0.0054530641 0.023600915
-0.0060614143 0.0055000018 0.02356681
-0.0038091047 0.0055000009 0.02366999
-0.0012408876 0.0055000023 0.02370441
0.0012160137 0.0055000014 0.023865608
0.0037440392 0.0055000014 0.023820961
0.0063743265 0.0055000009 0.023752062
0.0085122893 0.0054899314 0.023778742
0.010583641 0.0053445152 0.02308183
-0.0077603557 -0.0054396736 0.02516179
-0.0060697598 -0.0054390137 0.025762022
-0.0035008478 -0.0054680356 0.026450749
-0.00095803948 -0.0055000009 0.026005706
0.0010463145 -0.0055000014 0.026166756
0.0038637929 -0.0055000014 0.026553813
0.0060765068 -0.0054396009 0.025831796
0.007739814 -0.0050647799 0.025176715
-0.0077483505 -0.0041728788 0.025170512
-0.0061879763 -0.0040101502 0.026304187
-0.0048204558 -0.0041879681 0.027297745
0.0046972819 -0.0048901513 0.027387237
0.0063636662 -0.0036433788 0.026176542
0.007650102 -0.003526462 0.025241895
-0.007606098 -0.0011294845 0.025273867
-0.0063419477 -0.0011616786 0.026192317
-0.0047655627 -0.001415191 0.027337626
0.0048071123 -0.0014121565 0.02730744
0.0062666014 -0.0011043737 0.026247062
0.0078346943 -0.0015048798 0.02510778
-0.0077366629 0.0010420679 0.025179004
-0.0063292007 0.0011725286 0.026201583
-0.0049290131 0.0016026185 0.027218876
0.0047232346 0.0012396583 0.027368382
0.0062442981 0.001175509 0.026263271
0.0078210365 0.0011306911 0.025117705
-0.00773087 0.0034459194 0.025183214
-0.0062268865 0.0036330607 0.026275918
-0.0047486145 0.0041761659 0.027349941
0.0047842185 0.0039669736 0.027324073
0.0062076068 0.0036977751 0.026289921
0.0077243848 0.0040395241 0.025187925
-0.005946707 0.0054360619 0.026001375
-0.0035088616 0.0055000014 0.026408564
-0.0012068797 0.0055000014 0.026351824
0.0013599572 0.0055000014 0.026275508
0.0038998241 0.0055000018 0.026453033
0.0062132883 0.0054208622 0.02592068
-0.0032441833 -0.0054073734 0.028039264
-0.0013888219 -0.0054818746 0.028819209
0.0011825105 -0.0054463344 0.028657774
0.003220336 -0.0053707473 0.028172789
-0.003503964 -0.0037942415 0.028254228
-0.0017540789 -0.0037842055 0.029525591
0.0019773305 -0.0038719638 0.02936339
0.0034734618 -0.003809066 0.028276393
-0.0034273772 -0.0011911994 0.028309872
-0.0017423028 -0.0011483518 0.029534146
0.0016885377 -0.001179077 0.029573211
0.0035268427 -0.0013335788 0.028237611
-0.0037711395 0.001347728 0.028060118
-0.0015056826 0.0015914995 0.029706061
0.0017897171 0.0011812887 0.029499695
0.003506351 0.0010637981 0.028252497
-0.0033604892 0.0038055729 0.028358467
-0.0016596626 0.0041678501 0.02959419
0.0016949918 0.0032968973 0.029568521
0.003526987 0.0034890387 0.028237499
-0.0032083059 0.0053752158 0.028104791
-0.0012454928 0.0054197144 0.029061154
0.0013368517 0.0054641687 0.028650569
0.00325748 0.0053913365 0.027969314
-0.00086029898 -0.0052079973 0.030121787
0.00017578711 -0.0053504445 0.030448757
-0.00059536332 -0.0036657932 0.030367443
0.00059337611 -0.0039027892 0.030368889
-0.00065211306 -0.001842493 0.030326216
0.00056072284 -0.0015453998 0.030392615
-0.00058286212 0.001275279 0.030376524
0.00069066352 0.0011557032 0.030298201
-0.00030907648 0.0040317453 0.030575443
0.00068091543 0.0037702753 0.030305287
-0.00029536203 0.0053972164 0.030473992
0.00042423498 0.0055 0.030044861
