# .PCD v0.7 - Point Cloud Data file format
VERSION 0.7
FIELDS x y z
SIZE 4 4 4
TYPE F F F
COUNT 1 1 1
WIDTH 592
HEIGHT 1
VIEWPOINT 0 0 0 1 0 0 0
POINTS 592
DATA ascii
-0.013396374 -0.0054071597 0.0011617251
-0.011275887 -0.0054855705 0.0010405707
-0.008689696 -0.0054604034 0.0011880633
-0.0061166007 -0.0054419073 0.0010672208
-0.003655215 -0.0054441364 0.00069120841
-0.0011328119 -0.0054615997 0.0013281145
0.0012257292 -0.0054618837 0.00099120219
0.0036328665 -0.0054270918 0.00075636135
0.0063292733 -0.0054661408 0.0012219686
0.0087567708 -0.0054806345 0.0011704126
0.011332295 -0.0054527251 0.00086257875
0.013316968 -0.0054327119 0.0010620637
-0.013608685 -0.0035793216 0.00062657322
-0.01131431 -0.0033744848 0
-0.0086340783 -0.0035996025 0
-0.0062984973 -0.0036281543 0
-0.0036470087 -0.0039375285 0
-0.0011958185 -0.0036697837 0
0.0012344476 -0.003694095 0
0.003585224 -0.0037093912 0
0.006219177 -0.0041522291 0
0.0088114012 -0.0036917385 0
0.011349902 -0.00389212 0
0.013748141 -0.0037259003 0.00099342735
-0.013846716 -0.0015564362 0.00089905632
-0.011410641 -0.0010833229 0
-0.0083186133 -0.0012739209 0
-0.00639182 -0.0015397241 0
-0.003739021 -0.0015505655 0
-0.0011763978 -0.0013234668 0
0.00086078513 -0.0012014562 0
0.0037493333 -0.0014442711 0
0.0063223019 -0.0015848889 0
0.0085340394 -0.0010810761 0
0.011204343 -0.0012042997 0
0.013701512 -0.0012481739 0.00090835046
-0.013632271 0.0013128184 0.00065960141
-0.011147708 0.0013508742 0
-0.0084964838 0.0011050928 0
-0.0064588008 0.0013734313 0
-0.0037504134 0.00080980902 0
-0.0014167929 0.001528224 0
0.00091757771 0.0011136484 0
0.0038062562 0.00087033899 0
0.0059231352 0.0012150715 0
0.0086630387 0.00095442234 0
0.01109781 0.0011360343 0
0.013674086 0.0011893687 0.00069464953
-0.013884887 0.0038552985 0.0010335211
-0.011641498 0.0037900112 0
-0.0088460222 0.0037440485 0
-0.0062255696 0.003705655 0
-0.0036208297 0.0037817578 0
-0.001294183 0.0041666394 0
0.0010419533 0.0039895247 0
0.003788721 0.004112938 0
0.0062871855 0.0036443949 0
0.0085040713 0.0037871571 0
0.011181015 0.0039377175 0
0.013687223 0.0037628019 0.00071053597
-0.013237785 0.0054679662 0.0012482832
-0.011365818 0.0055000014 0.0013392585
-0.0089222929 0.0054897508 0.0010267642
-0.0064466572 0.0054635573 0.0012914403
-0.0037452499 0.0054306411 0.0010174883
-0.0013894228 0.0054687355 0.0011319501
0.0010851406 0.0054644295 0.00098373939
0.0038475732 0.0054497859 0.00096527982
0.006523008 0.005466043 0.0010934244
0.008994069 0.0054595983 0.00090205221
0.011399667 0.0054720193 0.0010776327
0.013485952 0.0053320141 0.0010109531
-0.013210991 -0.0054956898 0.0038533274
-0.01158655 -0.0055 0.0033397193
-0.0086781168 -0.0055 0.0040618526
-0.0064043188 -0.0055000009 0.0036803074
-0.0038705028 -0.0055000018 0.0039503779
-0.0010272758 -0.0055000014 0.0039413702
0.00084368966 -0.0055000009 0.0040202029
0.0037346568 -0.0055000014 0.0037120751
0.0062377164 -0.0055000014 0.0035779695
0.0087543828 -0.0055000004 0.0036201647
0.011367584 -0.0055000009 0.0037255611
0.013605756 -0.0054231044 0.0037896873
-0.014 -0.0039253151 0.0036521256
0.014 -0.0037093374 0.0035168619
-0.014 -0.0013862619 0.0040136767
0.014 -0.0012281797 0.0040403185
-0.014 0.0012407106 0.0037689225
0.014 0.001177099 0.0036652298
-0.014 0.0035563926 0.0042880238
0.014 0.0034454826 0.0039189598
-0.013414444 0.0054493784 0.0036915063
-0.011275662 0.0055000009 0.0035497774
-0.0088707181 0.0055000018 0.0035491989
-0.0062043592 0.0055000004 0.0037707128
-0.003645065 0.0055 0.0035004194
-0.0012172379 0.0055000009 0.0042077419
0.001228565 0.0055000014 0.0035427974
0.0037997169 0.0055 0.0034297667
0.0063788295 0.0055000004 0.0040085539
0.0089680683 0.0055000009 0.0037447293
0.011669776 0.0055 0.0035036993
0.013395431 0.005465521 0.0038448691
-0.01368439 -0.0053588497 0.0065738824
-0.011010395 -0.0055000009 0.0059669628
-0.0086424071 -0.0055000009 0.0065907179
-0.006054204 -0.0055000009 0.0064720316
-0.0037106834 -0.0055000004 0.0061959992
-0.0012416671 -0.0055000018 0.0065344623
0.0014836193 -0.0055000009 0.0062900842
0.0034857385 -0.0055000018 0.0061010369
0.0063424953 -0.0055000009 0.0063991915
0.0088599687 -0.0055000014 0.0061707851
0.011159386 -0.0055000023 0.0062111332
0.013334072 -0.0055000004 0.00606318
-0.014 -0.0037250239 0.006149123
0.014 -0.0037215254 0.0064729694
-0.014 -0.0011142215 0.0064332825
0.014 -0.0015941123 0.0065555926
-0.014 0.0014430702 0.006476922
0.014 0.0012990134 0.0061751646
-0.014 0.0038558997 0.0062666098
0.014 0.0039474797 0.006325142
-0.013029654 0.0054449965 0.0057987152
-0.011079296 0.0055000014 0.0062803109
-0.0088151461 0.0055000014 0.0062139393
-0.0062544709 0.0055000014 0.0063390145
-0.0036022838 0.0055000004 0.0066872467
-0.0013734503 0.0055000018 0.0062916768
0.0011096913 0.0055000014 0.0062019187
0.0037225555 0.0055000004 0.0063836961
0.0064319186 0.0055000014 0.006313317
0.008917897 0.0055000014 0.0063279527
0.011421972 0.0055000004 0.0060980218
0.013267192 0.0054833698 0.0061710239
-0.013297712 -0.005415448 0.0089326622
-0.011436165 -0.0055000004 0.0091378875
-0.008776377 -0.0055000009 0.0090487273
-0.0063839867 -0.0055 0.0086703189
-0.0034943884 -0.0055000009 0.0089180227
-0.0010708529 -0.0055000009 0.0084912302
0.0013226611 -0.0055000018 0.0085000033
0.0038730029 -0.0055000014 0.0088128829
0.0063791093 -0.0055000018 0.0087332409
0.0088034207 -0.0055000009 0.0085851271
0.011010677 -0.0055000014 0.0089081833
0.013460912 -0.0053761485 0.0087206746
-0.014 -0.0036859831 0.0086356923
0.014 -0.0035229591 0.0084624747
-0.014 -0.0015305955 0.0088087684
0.014 -0.001479393 0.0089043109
-0.014 0.00089071097 0.0088549349
0.014 0.0011764929 0.0085331704
-0.014 0.0037095067 0.0088065313
0.014 0.0040122336 0.008849306
-0.013283696 0.0054012476 0.0087746428
-0.011163767 0.0055000004 0.0086848624
-0.0085426057 0.0055000009 0.0088286018
-0.006298664 0.0055000014 0.0087782647
-0.0036433178 0.0055000004 0.0090060215
-0.0013217655 0.0055000004 0.0086885439
0.0011707736 0.0055000014 0.0083855931
0.0036609753 0.0055000004 0.0089681828
0.0065208604 0.0055000014 0.0086576222
0.0089233583 0.0055000004 0.0086553926
0.011276249 0.0055000009 0.0088037634
0.013561755 0.005441003 0.0087285703
-0.013222403 -0.0055000004 0.011378409
-0.011109574 -0.0055000023 0.011278273
-0.0085256007 -0.0055000009 0.011222825
-0.0060320641 -0.0055000018 0.011076845
-0.0038630122 -0.0055000018 0.011382019
-0.0010342684 -0.0055000009 0.011106989
0.0011441482 -0.0055000009 0.01113453
0.0035140745 -0.0055000009 0.011318621
0.006135752 -0.0055 0.011446743
0.0086465981 -0.0055000014 0.01120983
0.01111077 -0.0055000014 0.011116298
0.013452884 -0.0054166466 0.011343509
-0.014 -0.0038098251 0.011149754
0.014 -0.0033914931 0.011061138
-0.014 -0.001170703 0.011376014
0.014 -0.0013180423 0.011209792
-0.014 0.001318119 0.010931713
0.014 0.00084876159 0.01132515
-0.014 0.0038100218 0.011124449
0.014 0.0038289013 0.01123291
-0.013489397 0.0054317825 0.011138019
-0.011137074 0.0055000009 0.011269369
-0.0088070882 0.0055000014 0.010976132
-0.0060901879 0.0055000009 0.011133969
-0.0038576315 0.0055 0.011215539
-0.0011781773 0.0055000014 0.011189852
0.0010139633 0.0055 0.011483597
0.0038195734 0.0055 0.011287672
0.0062740021 0.0055000014 0.011492828
0.0086783627 0.0055000009 0.011457377
0.011171768 0.0055000014 0.011467075
0.013478201 0.0054402361 0.011424467
-0.013257361 -0.0054426617 0.013548536
-0.011164237 -0.0055000014 0.013676066
-0.0086096022 -0.0055000004 0.013619873
-0.0062099271 -0.0055000004 0.013839019
-0.0035323894 -0.0055000018 0.01395481
-0.0013800915 -0.0055000009 0.013702733
0.00092468585 -0.0055000014 0.014104786
0.0035983904 -0.0055000018 0.013625231
0.0061520203 -0.0055000014 0.013775795
0.0088809691 -0.0055000014 0.013717961
0.011363006 -0.0055000014 0.013741718
0.013584971 -0.0054392498 0.014025654
-0.014 -0.0038333386 0.013374584
0.014 -0.004055223 0.013644348
-0.014 -0.00097303558 0.013808851
0.014 -0.0010327301 0.013752617
-0.014 0.0013726897 0.01363518
0.014 0.0012796795 0.013895709
-0.014 0.0038107673 0.013600954
0.014 0.0038214433 0.013699805
-0.013240033 0.0054757316 0.013802476
-0.011174814 0.0055000004 0.013686569
-0.0087768203 0.0055000014 0.013834822
-0.006092276 0.0055000009 0.013797757
-0.0038103829 0.0055000014 0.013940055
-0.0011030828 0.0055000009 0.013578282
0.0014841998 0.0055000004 0.013884817
0.003722966 0.0055000004 0.013515913
0.0061141253 0.0055000014 0.013899659
0.0091299061 0.0055000004 0.013593419
0.011118759 0.0055000009 0.01379631
0.013388509 0.0054334798 0.013723074
-0.013583639 -0.0054315836 0.016377531
-0.011034082 -0.0055 0.016011657
-0.0089820679 -0.0055000018 0.016290346
-0.0063848547 -0.0055000014 0.016040275
-0.0036600598 -0.0055000018 0.01628856
-0.0010940193 -0.0055000004 0.016050342
0.0011032555 -0.0055000014 0.016375396
0.0034862875 -0.0055000009 0.016385999
0.0065461546 -0.0055000014 0.016367346
0.0087289521 -0.0055000018 0.016277088
0.011282722 -0.0055000014 0.016035542
0.01326448 -0.0054875659 0.015951825
-0.014 -0.0038058553 0.016244907
0.014 -0.0035734766 0.016102236
-0.014 -0.0012698614 0.016163586
0.014 -0.0012269424 0.016080962
-0.014 0.0011029172 0.016391667
0.014 0.0010865844 0.015903261
-0.014 0.0039422703 0.016060589
0.014 0.0039275158 0.016627105
-0.013440682 0.0054229498 0.016365359
-0.01109706 0.0055000014 0.016169332
-0.0090052867 0.0055000014 0.016408864
-0.0063448399 0.0055000009 0.01618398
-0.0037099421 0.0055000009 0.016301494
-0.0013184606 0.0055000018 0.016315561
0.0014419281 0.0055000014 0.015993318
0.0038674809 0.0055000014 0.01649881
0.0062846392 0.0055 0.016147861
0.0088885883 0.0055000014 0.016430033
0.011204612 0.0055000009 0.016449198
0.013476091 0.0054288292 0.016493343
-0.013555817 -0.0053953435 0.018785285
-0.011166537 -0.0055000009 0.018738586
-0.0086172204 -0.0055000018 0.01867426
-0.0062962556 -0.0055000018 0.018665308
-0.003495432 -0.0055000009 0.018656628
-0.0013629822 -0.0055000009 0.018733736
0.0014177744 -0.0055000014 0.018751724
0.0037849627 -0.0055000009 0.018815326
0.0061675333 -0.0055 0.0185048
0.0087291012 -0.0055000004 0.018832183
0.011209649 -0.0055000009 0.018705936
0.013498129 -0.0054239333 0.018873235
-0.014 -0.0040621455 0.018679433
0.014 -0.0035143793 0.018661764
-0.014 -0.0012608182 0.01874551
0.014 -0.00098251726 0.018685337
-0.014 0.0010114496 0.018607059
0.014 0.0011919141 0.018487277
-0.014 0.0040868968 0.019057386
0.014 0.0037714869 0.018690655
-0.013444219 0.0053862091 0.018563492
-0.011162181 0.0055000014 0.018809956
-0.0089190267 0.0055000009 0.018647768
-0.0062860795 0.0055000014 0.018652866
-0.0036511845 0.0055000014 0.018663391
-0.001387813 0.0055000009 0.019042902
0.0011557461 0.0055 0.018489568
0.0034921397 0.0055 0.018695377
0.006138077 0.0055000018 0.018591076
0.0090073384 0.0055000009 0.018841513
0.011440891 0.0055 0.018503172
0.013616785 0.0054560481 0.019190503
-0.013477983 -0.0054501304 0.020679533
-0.011200404 -0.0055000004 0.021084446
-0.0087045301 -0.0055000014 0.021341337
-0.0060682413 -0.0055 0.020634003
-0.0037642007 -0.0055000018 0.021256879
-0.001476594 -0.0055000014 0.021223504
0.00096983707 -0.0055000014 0.020949211
0.0040388643 -0.0055000004 0.021577166
0.0064041545 -0.0055000014 0.021310087
0.0089173801 -0.0055000009 0.021330055
0.011129505 -0.0055000014 0.021298284
0.013523922 -0.0054368409 0.021249093
-0.014 -0.0038510091 0.021217423
0.014 -0.0038161683 0.021369457
-0.014 -0.0012471895 0.02142065
0.014 -0.0014623686 0.021333026
-0.014 0.00095368177 0.021295568
0.014 0.00141159 0.021370606
-0.014 0.0041235541 0.021115566
0.014 0.0037250584 0.021454571
-0.013468369 0.0054655904 0.02131087
-0.011504323 0.0055000014 0.021123119
-0.0090087289 0.0055000009 0.021518108
-0.0059621735 0.0055000009 0.021358673
-0.003943265 0.0055000009 0.021595737
-0.001234444 0.0055000009 0.02141932
0.0011520829 0.0055000018 0.021016851
0.0036016209 0.0055000018 0.021273583
0.0061044083 0.0055000018 0.021115202
0.0089202439 0.0055000023 0.021441767
0.011401374 0.0055 0.021078866
0.013527443 0.0054162983 0.021053046
-0.013087712 -0.0054762214 0.023611926
-0.011220695 -0.0055000014 0.023684226
-0.0087109953 -0.0055000004 0.023580659
-0.0064297901 -0.0055000018 0.023701578
-0.0038176524 -0.0055000014 0.023696773
-0.001134048 -0.0055000014 0.023736667
0.0013151558 -0.0055000014 0.023563255
0.0038744395 -0.0055000014 0.023907999
0.0062424485 -0.0055000014 0.023500372
0.0087475488 -0.0055000009 0.023381993
0.011033949 -0.0055000014 0.023715254
0.013449376 -0.0054595619 0.023751367
-0.014 -0.0034261334 0.023836017
0.014 -0.0036821447 0.023715185
-0.014 -0.0015573128 0.023549179
0.014 -0.0014334258 0.023460617
-0.014 0.0016205233 0.023573007
0.014 0.0012345555 0.02392721
-0.014 0.0037089165 0.02391742
0.014 0.0039786864 0.023310944
-0.013336129 0.0054560169 0.023961993
-0.011235964 0.0055000014 0.023730638
-0.0087966779 0.0055000014 0.023708047
-0.006236352 0.0055 0.023584684
-0.0036509233 0.0055000009 0.023702208
-0.0011688423 0.0055000018 0.023696175
0.0013261458 0.0055000004 0.023840278
0.0035130414 0.0055000009 0.023841819
0.0063764583 0.0055000014 0.023481652
0.0087160887 0.0055000018 0.023942916
0.011216169 0.0055000004 0.023869038
0.013299543 0.0054493109 0.023651637
-0.013319704 -0.0054587964 0.026182827
-0.01135811 -0.0055000009 0.026708197
-0.0091787502 -0.0055000009 0.026163667
-0.0061558429 -0.0055000014 0.026063036
-0.0038718756 -0.0055000004 0.026111724
-0.001359424 -0.0055000009 0.026047453
0.0013683552 -0.0055000009 0.026066
0.0036823726 -0.0055000004 0.026211713
0.005891066 -0.0055000014 0.026470339
0.0086111417 -0.0055000009 0.02598189
0.0113363 -0.0055000018 0.02613835
0.013557711 -0.0054390621 0.026231494
-0.014 -0.0038490023 0.026298359
0.014 -0.0040296521 0.026118712
-0.014 -0.0012060502 0.026235903
0.014 -0.00093912194 0.026184319
-0.014 0.0010214853 0.026243797
0.014 0.0013722003 0.02603041
-0.014 0.0035850792 0.02618609
0.014 0.0037274973 0.025904631
-0.013515805 0.0053821285 0.025987033
-0.011211483 0.0055000009 0.026146276
-0.0088625569 0.0055000009 0.026206991
-0.0061111613 0.0055 0.025968319
-0.0036765325 0.0055000009 0.026148487
-0.0013006282 0.0055000004 0.026224634
0.0014761921 0.0055000014 0.026013836
0.0038521232 0.0055000014 0.026368944
0.0060665011 0.0055000014 0.026290471
0.0089527592 0.0055000014 0.026484912
0.011244456 0.0055000014 0.026325643
0.013292027 0.0054637869 0.026466308
-0.013505964 -0.0054331273 0.028623858
-0.011221525 -0.0055000014 0.028712621
-0.0085998708 -0.0055 0.028748112
-0.0065857419 -0.0055000018 0.028736234
-0.0034971614 -0.0055000018 0.028778732
-0.0015919633 -0.0055000009 0.02886061
0.00095922768 -0.0055000009 0.028990477
0.0038833518 -0.0055000009 0.028966717
0.0063961162 -0.0055000014 0.0290593
0.0083550401 -0.0055 0.028561855
0.011064859 -0.0055 0.028675487
0.013557332 -0.0054194331 0.028934129
-0.014 -0.0035517155 0.0289241
0.014 -0.0036565489 0.028480824
-0.014 -0.0014056223 0.028918805
0.014 -0.0012234361 0.028951235
-0.014 0.0011211883 0.028704755
0.014 0.0009574758 0.028832456
-0.014 0.003559998 0.028680652
0.014 0.00376798 0.0284603
-0.013478168 0.0054184687 0.028960453
-0.011204951 0.0055000014 0.02881257
-0.0084298756 0.0055000014 0.028761407
-0.0061959871 0.0055000018 0.02881862
-0.0036799919 0.0055000004 0.028810315
-0.001130796 0.0055000009 0.028668825
0.0014107709 0.0055 0.028987886
0.0039638607 0.0055 0.028772945
0.0064562401 0.0055000009 0.028758029
0.0088967755 0.0055000009 0.028705494
0.011106992 0.0055 0.029063875
0.013713154 0.0054048747 0.028753832
-0.01322521 -0.005495267 0.031271581
-0.011355303 -0.0055000009 0.031543177
-0.0086881518 -0.0055000014 0.031336077
-0.0063022743 -0.0055 0.031456139
-0.0037984333 -0.0055000023 0.031099809
-0.0015550434 -0.0055000009 0.031068753
0.0010777393 -0.0055000004 0.031584486
0.0035759546 -0.0055000018 0.031113602
0.0064156428 -0.0055000009 0.031521209
0.009071351 -0.0055 0.03124786
0.011102769 -0.0055 0.031426027
0.013539184 -0.0054317997 0.031323146
-0.014 -0.0038877251 0.030924821
0.014 -0.0038962059 0.031164503
-0.014 -0.0010653308 0.031534426
0.014 -0.0012982617 0.031494424
-0.014 0.0012286195 0.031015133
0.014 0.001294703 0.031394549
-0.014 0.0034376832 0.031419713
0.014 0.0037398934 0.030991577
-0.013319225 0.0054795826 0.030788574
-0.011382703 0.0055000014 0.031261217
-0.0086029395 0.0055000009 0.031302154
-0.0063082515 0.0055000023 0.031341441
-0.0034206286 0.0055000009 0.031357121
-0.0011169 0.0055000014 0.031129494
0.0016972697 0.0055 0.031122409
0.003842829 0.0055000023 0.031389497
0.0062693306 0.0055000009 0.031221056
0.008635289 0.0055 0.031383466
0.011415256 0.0055000014 0.031327318
0.013509278 0.0054563163 0.031194935
-0.013735597 -0.0053967484 0.034001563
-0.011314091 -0.0055000018 0.033527885
-0.0084294491 -0.0055000004 0.03374688
-0.0063472427 -0.0055000018 0.033827335
-0.0037728257 -0.0055000018 0.033907566
-0.0011850732 -0.0055000014 0.033925999
0.0013373831 -0.0055000018 0.033933245
0.0037362052 -0.0055000018 0.033658341
0.0064907358 -0.0055000009 0.033942558
0.0085502081 -0.0055000004 0.033807114
0.011085938 -0.0055000004 0.033804666
0.013474662 -0.0054586497 0.033896171
-0.014 -0.0038025293 0.033893455
0.014 -0.0036405204 0.033699486
-0.014 -0.0011289401 0.0339658
0.014 -0.001231127 0.03377863
-0.014 0.0010552238 0.033573575
0.014 0.001120021 0.034043308
-0.014 0.003752172 0.03367129
0.014 0.0037778672 0.034009423
-0.013385108 0.0054333583 0.034019433
-0.011246455 0.0055000004 0.033440541
-0.0088581229 0.0055000009 0.033776574
-0.0060792197 0.0055000009 0.033825286
-0.0036051515 0.0055000009 0.033832952
-0.0015648565 0.0055000009 0.033743188
0.0012265557 0.0055 0.033458427
0.0034370155 0.0055000014 0.033789046
0.0063103004 0.0055 0.034127381
0.0091594579 0.0055 0.03399431
0.011147204 0.0055000004 0.033700313
0.013333104 0.0054405476 0.033665597
-0.013648387 -0.0054332442 0.035957705
-0.011348833 -0.0055000014 0.036444761
-0.0083710086 -0.0055000009 0.036209442
-0.0061938325 -0.0055000004 0.036344118
-0.0035136107 -0.0055000004 0.036123808
-0.0015305053 -0.0055000009 0.036300272
0.0010170349 -0.0055 0.03640293
0.0038526994 -0.0055000009 0.036232691
0.00609075 -0.0055000023 0.036377363
0.0087781688 -0.0055 0.036339112
0.01118659 -0.0055000014 0.036462203
0.013364513 -0.0054573384 0.036131024
-0.014 -0.0041901339 0.035980705
0.014 -0.0039572716 0.036355171
-0.014 -0.0014977229 0.036413539
0.014 -0.0012566467 0.036187705
-0.014 0.001113098 0.036280349
0.014 0.00096732483 0.036245249
-0.014 0.0036628277 0.036257349
0.014 0.0037740583 0.035961889
-0.013499959 0.0054318612 0.035905052
-0.011467374 0.0055000014 0.036378231
-0.0088306908 0.0055 0.036014747
-0.0063087703 0.0055000014 0.035945315
-0.0036742787 0.0055000014 0.036165878
-0.0013182289 0.0055 0.036312852
0.001807554 0.0055 0.035758417
0.0038709287 0.0055000014 0.03613238
0.0063275741 0.0055000018 0.036255244
0.0088833245 0.0055000009 0.036248878
0.011351253 0.0055000009 0.03667789
0.01321917 0.0054660565 0.03619929
-0.013539649 -0.0053525106 0.037773814
-0.011614078 -0.0054910854 0.037791122
-0.0085711004 -0.0055 0.037759807
-0.0064262757 -0.0054091113 0.037821379
-0.0037079414 -0.0054317587 0.037849527
-0.0011343777 -0.005417943 0.037920084
0.00097127794 -0.0054155895 0.037863329
0.0033726804 -0.0054258592 0.037896018
0.0064350562 -0.005362066 0.03784281
0.0084715225 -0.0054095802 0.037844434
0.01147614 -0.0053302757 0.037961639
0.013173833 -0.0053854184 0.037936006
-0.013493918 -0.0036183896 0.03797967
-0.011237203 -0.0040036635 0.037999995
-0.0088876849 -0.0040931217 0.037999995
-0.0065812632 -0.0037212903 0.037999991
-0.0037407451 -0.00356407 0.037999995
-0.0012964087 -0.0038952222 0.037999995
0.0013811504 -0.0038355053 0.037999991
0.0036774522 -0.0040550833 0.037999995
0.0061311042 -0.0036551952 0.037999995
0.0088863941 -0.003907782 0.037999995
0.011395901 -0.0035127103 0.037999999
0.013636264 -0.0036124734 0.037853695
-0.013461826 -0.0011841457 0.037951648
-0.01162276 -0.0013187455 0.037999995
-0.0088123837 -0.0011182871 0.037999999
-0.005712315 -0.00098610029 0.037999995
-0.0037874074 -0.0014298566 0.037999995
-0.0013746491 -0.0014956136 0.037999995
0.0012982106 -0.0013461338 0.037999991
0.0039181928 -0.0015137778 0.037999995
0.0062213442 -0.0012377409 0.037999995
0.0084066782 -0.0013503492 0.037999995
0.011439588 -0.0011429591 0.037999995
0.013486452 -0.0013920795 0.037941869
-0.013459645 0.0012214951 0.037954602
-0.011084952 0.0014368708 0.037999995
-0.0086704828 0.0011364609 0.037999995
-0.0061769634 0.0014831956 0.037999999
-0.0034874603 0.0013624239 0.037999995
-0.00095370581 0.0013855011 0.037999991
0.0011111521 0.0012753457 0.037999995
0.0036749882 0.0011224798 0.037999995
0.0059224912 0.0013410051 0.037999995
0.0083715944 0.001132856 0.037999995
0.011149506 0.0012171214 0.037999995
0.013746026 0.0013350939 0.037923213
-0.013166422 0.0038233032 0.037947476
-0.011209008 0.0037380136 0.037999995
-0.0085268896 0.003718266 0.037999999
-0.0062301187 0.0038281775 0.037999991
-0.0040373872 0.0033945437 0.037999995
-0.0011097897 0.0037875357 0.037999995
0.0011183363 0.0037601031 0.037999995
0.00391716 0.0037434946 0.037999995
0.0061586183 0.0036107276 0.037999995
0.0087145241 0.004178205 0.037999991
0.011338874 0.0035431623 0.037999995
0.013435676 0.0037252419 0.03793798
-0.013255443 0.0054675038 0.037693299
-0.011019356 0.0053779292 0.037834454
-0.0083903093 0.0054438324 0.037812702
-0.0058387825 0.0054394524 0.037903436
-0.0037089686 0.0053558028 0.037963595
-0.0011463654 0.0052786749 0.037906904
0.0014173456 0.005409291 0.037840877
0.0035635908 0.0053997077 0.037762541
0.005934217 0.0052954615 0.037950877
0.0086802952 0.005280884 0.037959766
0.011484191 0.0054356754 0.037862439
0.013039846 0.0050867205 0.037999999
