# .PCD v0.7 - Point Cloud Data file format
VERSION 0.7
FIELDS x y z
SIZE 4 4 4
TYPE F F F
COUNT 1 1 1
WIDTH 564
HEIGHT 1
VIEWPOINT 0 0 0 1 0 0 0
POINTS 564
DATA ascii
-0.015633235 -0.0054389806 0.0011019063
-0.01371773 -0.0054652733 0.0010696026
-0.011267767 -0.0054992074 0.0012083253
-0.0089185731 -0.0054405574 0.0010578764
-0.0063244216 -0.005460361 0.00095655367
-0.0039440943 -0.0054675061 0.00094241765
-0.00094410346 -0.005434793 0.00098053121
0.0012388707 -0.0054749893 0.0010932658
0.0035363033 -0.0054397136 0.00076335593
0.0064422665 -0.0054660449 0.00090015185
0.0086953808 -0.0054870909 0.001389672
0.011327791 -0.0054643047 0.0010412093
0.013753265 -0.0054895147 0.0011262165
0.015624486 -0.0053931302 0.00095047842
-0.01582172 -0.0037910184 0.00065943581
-0.013834232 -0.0034579686 0
-0.011448944 -0.0037266738 0
-0.0088036861 -0.0036565783 0
-0.0064640897 -0.0037371507 0
-0.0036526641 -0.0039507942 0
-0.0010880877 -0.0037366573 0
0.001200231 -0.0037608587 0
0.0034936031 -0.0037516362 0
0.0062352307 -0.0040143542 0
0.0089468332 -0.0035772847 0
0.010951613 -0.0035823451 0
0.013669381 -0.0038863656 0
0.015957259 -0.0038290261 0.001000616
-0.015885437 -0.0015290751 0.00092733646
-0.013589795 -0.0012436772 0
-0.011284707 -0.0011755994 0
-0.008989769 -0.0017077277 0
-0.0063376948 -0.0013313304 0
-0.0037556756 -0.0014496915 0
-0.0010979689 -0.00099045329 0
0.0012246687 -0.0014040342 0
0.0039118514 -0.0011240061 0
0.0064984122 -0.0017228967 0
0.009026872 -0.0011432059 0
0.01149762 -0.0011577613 0
0.013837269 -0.001246802 0
0.015894307 -0.0014116953 0.00099932845
-0.015901305 0.001536959 0.00096369762
-0.013846835 0.0013921116 0
-0.011458435 0.0012969223 0
-0.0087071313 0.0013368194 0
-0.0061614518 0.00099132815 0
-0.0038793611 0.0010476433 0
-0.0011821798 0.0013760464 0
0.0012842095 0.0015908369 0
0.0036120024 0.0013376535 0
0.0064669801 0.0011151189 0
0.0090109464 0.001380739 0
0.011263594 0.0010502917 0
0.013824876 0.0013705621 0
0.015841577 0.0010180321 0.00085600768
-0.015925974 0.0039534885 0.0008601225
-0.014055145 0.0035475974 0
-0.01151366 0.0038176095 0
-0.008821738 0.0038576943 0
-0.0062411274 0.0037988091 0
-0.0037300836 0.0035023987 0
-0.0010606771 0.0038364993 0
0.0012858235 0.0035993131 0
0.0039095413 0.0039541596 0
0.0061972355 0.0037085239 0
0.0086609442 0.0035808177 0
0.011222631 0.0038897423 0
0.013875965 0.0034373912 0
0.015799938 0.0038032441 0.00084625109
-0.015568271 0.0054252837 0.000965357
-0.013897691 0.0055000018 0.0012053978
-0.010995398 0.0054801917 0.0011668683
-0.0088849468 0.0054767355 0.0013738857
-0.0060320054 0.0053936839 0.00093156879
-0.0038294834 0.00542193 0.00096407731
-0.0013803256 0.0054252371 0.00098713126
0.0011109079 0.0054937541 0.0011162993
0.004065244 0.0054672537 0.0013599392
0.006298109 0.0054575549 0.0011855108
0.0086226314 0.0054498143 0.0010198161
0.011425545 0.0054638176 0.00097541779
0.013668711 0.0054315864 0.00088031334
0.015671533 0.0053324085 0.0007858696
-0.015804049 -0.0053442777 0.0042556715
-0.013820618 -0.0055000004 0.0036803272
-0.011355915 -0.0055000009 0.0040265047
-0.0085641164 -0.0055000018 0.0037172963
-0.0060456758 -0.0055000014 0.0037913185
-0.0036174238 -0.0055000009 0.003783406
-0.00094567565 -0.0055000018 0.0036469752
0.0011905096 -0.0055000009 0.0036600118
0.0038040951 -0.0055000018 0.0037645355
0.0062856032 -0.0055000009 0.0037435393
0.0087482957 -0.0055000014 0.0037698983
0.011432325 -0.0055000018 0.0040357956
0.013800563 -0.0055000014 0.0039075776
0.015808545 -0.0054065869 0.0039520548
-0.016000001 -0.0038452407 0.0037185224
0.016000001 -0.00372045 0.0032853228
-0.016000001 -0.0011590947 0.0036730231
0.016000001 -0.0013633533 0.0037041232
-0.016000001 0.0010480667 0.0035120547
0.016000001 0.0014282335 0.0037352976
-0.016000001 0.0037345197 0.0038550883
0.016000001 0.0037219012 0.0035971932
-0.015660282 0.0053757005 0.0034547241
-0.013950923 0.0055000018 0.0037848479
-0.011036626 0.0055000018 0.0036013031
-0.0083829267 0.0055 0.0036580951
-0.0065621855 0.0055000009 0.003746138
-0.0037400424 0.0055 0.0034359845
-0.001187165 0.0055000014 0.0040855212
0.0011866102 0.0055000009 0.0039205886
0.0036796762 0.0055 0.0037895238
0.00658391 0.0055000004 0.0038567239
0.0088014575 0.0055000004 0.0040671476
0.011254576 0.0055000014 0.0037848968
0.01403791 0.0055000009 0.0039323182
0.015704419 0.0054510455 0.0038659014
-0.015697677 -0.0052960529 0.00637175
-0.01385296 -0.0055 0.006258144
-0.011264982 -0.0055000009 0.0060849446
-0.0089289639 -0.0055000004 0.0062396517
-0.0062705972 -0.0055 0.0060548675
-0.0034845348 -0.0055000009 0.0062272088
-0.0011341418 -0.0055000014 0.0058581
0.0014238887 -0.0055000018 0.0064997766
0.0037016897 -0.0055000009 0.0062500206
0.0062913159 -0.0055000014 0.006438917
0.008584749 -0.0055000014 0.0062419688
0.011773225 -0.0055000009 0.0063102297
0.013898856 -0.0055000018 0.0060718418
0.01562425 -0.0053702705 0.0066876435
-0.016000001 -0.0036933336 0.0065452708
0.016000001 -0.00335807 0.0063698338
-0.016000003 -0.0014519624 0.006424563
0.016000001 -0.0010204841 0.0060250168
-0.016000001 0.0013166575 0.0063618268
0.016000001 0.0011047843 0.006052461
-0.016000001 0.003682164 0.0061383881
0.016000003 0.0037788886 0.0060892161
-0.01559528 0.0052718669 0.0063525289
-0.013809958 0.0055000009 0.0063146348
-0.011179372 0.0055000018 0.0059320885
-0.00867429 0.0055000014 0.0064244978
-0.0064369971 0.0055000014 0.0063161463
-0.0035191064 0.0055000014 0.0062979856
-0.0012827234 0.0055000014 0.0060070138
0.0010794102 0.0055000018 0.0061377105
0.0035445876 0.0055 0.0061450629
0.0061850045 0.0055000014 0.0062232888
0.0085434094 0.0055000014 0.0061950283
0.010960247 0.0055 0.0060166963
0.013773261 0.0055000004 0.0065173251
0.01565329 0.0054059844 0.006087563
-0.015647683 -0.0054595461 0.0088631464
-0.01365783 -0.0055000014 0.0085491817
-0.011200957 -0.0055000018 0.0087561654
-0.0088899117 -0.0055000009 0.0086759729
-0.0060653943 -0.0055000018 0.0087579526
-0.0037526966 -0.0055000014 0.008845089
-0.0014344797 -0.0055000004 0.0086012315
0.00096816832 -0.0055000014 0.0088003147
0.003504141 -0.0055000014 0.0086212028
0.0062470436 -0.0055000014 0.0086736912
0.0086907046 -0.0055000014 0.008667089
0.011306422 -0.0055000018 0.0089016715
0.013816118 -0.0055000009 0.0087232478
0.015697757 -0.0053887651 0.0087385429
-0.016000001 -0.0039077164 0.0089682927
0.016000001 -0.0032994938 0.009146058
-0.016000001 -0.0012821944 0.0089233611
0.016000001 -0.0013237599 0.0085802507
-0.016000001 0.0011663941 0.0086863935
0.016000001 0.00090522441 0.0084902737
-0.016000001 0.0040202071 0.0085494695
0.016000001 0.0039482499 0.0087395059
-0.015654957 0.0053822747 0.0089677041
-0.01376109 0.0055000014 0.0088157877
-0.011078296 0.0055000009 0.0086165573
-0.0090478454 0.0055000014 0.0084213261
-0.0062128017 0.0055000014 0.0087155923
-0.003773876 0.0055000004 0.0087016281
-0.0010814735 0.0055000009 0.0089640152
0.0010238283 0.0055 0.0090737361
0.0039366172 0.0055000014 0.0087005319
0.0061932942 0.0055000014 0.0086270208
0.0084659215 0.0055000014 0.0087089185
0.011186653 0.0055000014 0.0088960212
0.013342242 0.0055000009 0.0089132665
0.015782757 0.0054099364 0.0085065225
-0.015638089 -0.0054527572 0.011120811
-0.01386926 -0.0055000018 0.011022729
-0.011415889 -0.0055000018 0.011238129
-0.008786683 -0.0055000009 0.010955133
-0.0061799479 -0.0055000014 0.011066241
-0.003729206 -0.0055000014 0.011534358
-0.0013473266 -0.0055000009 0.01117386
0.0010883874 -0.0055000018 0.011553359
0.0037649442 -0.0055000014 0.011127633
0.0059393947 -0.0055000009 0.011235619
0.0086291721 -0.0055000004 0.011532793
0.011149561 -0.0055000014 0.011277366
0.013665891 -0.0055000014 0.01130801
0.015739631 -0.0054185493 0.011387789
-0.016000001 -0.0036217261 0.011059662
0.016000001 -0.003934666 0.011462757
-0.016000001 -0.001140699 0.011082272
0.016000001 -0.0011764803 0.011202252
-0.016000001 0.0013230068 0.011064483
0.016000001 0.0012041358 0.011115042
-0.016000001 0.0037318186 0.011340463
0.016000001 0.0038081883 0.011282826
-0.015527736 0.0054607806 0.011232894
-0.013965455 0.0055000018 0.011311136
-0.010991367 0.0055000014 0.011435192
-0.0089324722 0.0055000009 0.011186534
-0.0064134393 0.0055000014 0.011452578
-0.0039830068 0.0055000009 0.011463934
-0.0012603523 0.0055000014 0.011195322
0.0015072102 0.0055 0.011477679
0.0037496469 0.0055000004 0.011281194
0.0060428241 0.0055000014 0.011265663
0.0085150469 0.0055000014 0.010914169
0.011485649 0.0055000009 0.011434091
0.013647962 0.0055000018 0.011139655
0.015528427 0.0054390701 0.011522088
-0.015674541 -0.0054347776 0.013780671
-0.013812541 -0.0055000004 0.014022942
-0.011155066 -0.0055000023 0.013756759
-0.008665869 -0.0055000018 0.013542742
-0.0065439078 -0.0055000014 0.013472538
-0.0033212837 -0.0055000004 0.01393508
-0.0011287449 -0.0055000004 0.013952578
0.00099433027 -0.0055000014 0.013902258
0.0034783829 -0.0055000014 0.013820494
0.0063277115 -0.0055000009 0.013872769
0.0089901472 -0.0055000014 0.013686874
0.011135242 -0.0055000009 0.013445841
0.013640477 -0.0055000018 0.013586104
0.015766196 -0.0053983829 0.013538042
-0.016000001 -0.0039149113 0.01382513
0.016000001 -0.0038304254 0.013337604
-0.016000001 -0.0012042997 0.013665662
0.016000001 -0.0011389586 0.013863034
-0.016000001 0.0010695541 0.013954922
0.016000001 0.0012420311 0.01348704
-0.016000001 0.0039419956 0.013502331
0.016000003 0.0038690928 0.013927996
-0.015639098 0.0053676153 0.013770263
-0.013546031 0.0055000009 0.013924441
-0.011091083 0.0055000018 0.0136457
-0.0087651238 0.0055000009 0.013623161
-0.006375168 0.0055000009 0.013673677
-0.0036950824 0.0055000018 0.013838587
-0.0012179012 0.0055000014 0.013828045
0.0013572723 0.0055000018 0.01365104
0.0035929042 0.0055000014 0.013804538
0.0060874191 0.0055000009 0.013939224
0.0086178808 0.0055000004 0.013756351
0.011367275 0.0055000018 0.013835356
0.014008382 0.0055000004 0.01406284
0.015705129 0.0053876289 0.013730529
-0.015794143 -0.0053837635 0.016127568
-0.01385588 -0.0055000009 0.016177094
-0.01090209 -0.0055000018 0.016193531
-0.0087397471 -0.0055000004 0.016303379
-0.0064388956 -0.0055000018 0.016442025
-0.0036529968 -0.0055000014 0.015960263
-0.0012694775 -0.0055000014 0.016298357
0.0012674818 -0.0055000004 0.016199827
0.0035749045 -0.0055000004 0.01611058
0.0063615306 -0.0055000014 0.016397748
0.0087928558 -0.0055000009 0.016536562
0.011354838 -0.0055000014 0.016430724
0.014044658 -0.0055000004 0.01599076
0.015445249 -0.0055 0.016162608
-0.016000001 -0.0039248792 0.016407922
0.016000003 -0.0032631219 0.016287452
-0.016000003 -0.0011089565 0.01595277
0.016000003 -0.0011668212 0.016160322
-0.016000001 0.0011551878 0.016185712
0.016000001 0.001241021 0.015883023
-0.016000003 0.0040426021 0.016566994
0.016000001 0.0038609125 0.016513953
-0.015556123 0.005401094 0.016656272
-0.013842436 0.0055000014 0.016290212
-0.011270663 0.0055000018 0.01608241
-0.0084195109 0.0055000009 0.015981151
-0.0063375616 0.0055000014 0.016406888
-0.003556855 0.0055000009 0.016249061
-0.0011616073 0.0055000009 0.01634389
0.001279973 0.0055000014 0.016436446
0.0040076808 0.0055000004 0.016663315
0.0064621479 0.0055000014 0.016393902
0.0088231098 0.0055000004 0.016214997
0.011031403 0.0055000009 0.016127208
0.013682103 0.0055 0.016312374
0.015684607 0.0053811232 0.016630072
-0.015662093 -0.0054981252 0.018701788
-0.013344976 -0.0055000009 0.01870765
-0.011075675 -0.0055000009 0.018599868
-0.008750109 -0.0055000014 0.018733844
-0.0062594628 -0.0055000009 0.018979201
-0.0038588941 -0.0055000018 0.018450012
-0.0012147918 -0.0055000018 0.018752633
0.0010885498 -0.0055000014 0.018691212
0.0035773565 -0.0055000014 0.018639931
0.0062559498 -0.0055000018 0.018813075
0.0086982753 -0.0055 0.018955471
0.010956608 -0.0055000014 0.018793736
0.013543889 -0.0055000018 0.018738842
0.015606279 -0.0054764189 0.018752364
-0.016000003 -0.0036640172 0.018731378
0.016000001 -0.0040126275 0.018658796
-0.016000001 -0.0013411137 0.018607272
0.016000001 -0.00098320609 0.018856574
-0.016000001 0.0012484805 0.018699074
0.016000001 0.0011498971 0.019028379
-0.016000001 0.0040388578 0.018987432
0.016000003 0.0037281769 0.018723261
-0.015657768 0.0054740133 0.018852971
-0.013750873 0.0055000009 0.018918188
-0.011235263 0.0055000014 0.018743819
-0.0087289969 0.0055000014 0.018814415
-0.0062862039 0.0055000009 0.018616788
-0.0039119171 0.0055000014 0.018752113
-0.0012464529 0.0055000018 0.018969595
0.0013934834 0.0055000009 0.018731575
0.0036001275 0.0055000014 0.018698746
0.0062968992 0.0055000018 0.018796444
0.00877304 0.0055000018 0.018584659
0.010869053 0.0055000018 0.01878617
0.014071406 0.0055000004 0.018870948
0.015540926 0.0054695108 0.018893307
-0.015720915 -0.0054189567 0.021406885
-0.013751487 -0.0055000014 0.021376675
-0.01122416 -0.0055000009 0.021156166
-0.0084879985 -0.0055000014 0.021046693
-0.0063470239 -0.0055000014 0.02136144
-0.0039449139 -0.0055000009 0.021327473
-0.0014310798 -0.0055000009 0.020956036
0.0011982732 -0.0055000004 0.021081569
0.0038347519 -0.0055000014 0.021181419
0.0063832938 -0.0055000014 0.021313658
0.0087753218 -0.0055000009 0.021394864
0.01135171 -0.0055000009 0.021511361
0.013800746 -0.0055000018 0.021642976
0.015442162 -0.005423272 0.021299507
-0.016000001 -0.003639512 0.021141954
0.016000001 -0.0038583041 0.021551974
-0.016000003 -0.0012933556 0.021269813
0.016000001 -0.0014022543 0.021355482
-0.016000001 0.0011962814 0.021334337
0.016000001 0.0012596252 0.021165
-0.016000001 0.003750216 0.021155849
0.016000001 0.0037931467 0.021578167
-0.015825985 0.0053353216 0.021219611
-0.01390052 0.0055000014 0.021195242
-0.011052781 0.0055000014 0.02101339
-0.0088774525 0.0055 0.021077571
-0.0060845152 0.0055000004 0.021130258
-0.0036402852 0.0055000014 0.02115256
-0.0012849988 0.0055000014 0.021210488
0.001677348 0.0055000014 0.021440476
0.0036807426 0.0055000014 0.021093905
0.0062588584 0.0055000014 0.021555182
0.0086212866 0.0055000018 0.020995794
0.011207978 0.0055000014 0.021445289
0.013706293 0.0055000009 0.021149233
0.015452022 0.0054930057 0.021226132
-0.01566121 -0.0054266802 0.023852166
-0.013790912 -0.0055000018 0.023754383
-0.01153579 -0.0055000018 0.023656936
-0.0089838719 -0.0055 0.02383922
-0.0065945205 -0.0055 0.023622364
-0.0037084916 -0.0055000023 0.024030464
-0.0015021114 -0.0055000009 0.02364718
0.001206278 -0.0055000009 0.023812309
0.0041544251 -0.0055000009 0.023828765
0.0063952128 -0.0055000014 0.023433123
0.0085786572 -0.0055 0.023758389
0.011313345 -0.0055 0.023657016
0.013719211 -0.0055000004 0.02375529
0.01554207 -0.0054810387 0.023969889
-0.016000001 -0.0034850161 0.023767022
0.016000003 -0.004003115 0.023739196
-0.016000001 -0.0014752774 0.023689065
0.016000001 -0.0013333714 0.023856532
-0.016000001 0.00097917463 0.023610391
0.016000001 0.0011612441 0.023598412
-0.016000001 0.003509003 0.024066271
0.016000001 0.0039046295 0.023914434
-0.015664136 0.0054054586 0.024081642
-0.013594121 0.0055000004 0.023972955
-0.011377858 0.0055000014 0.023653004
-0.0089421812 0.0055000018 0.023808615
-0.006387304 0.0055000004 0.023894684
-0.003646571 0.0055000009 0.023815287
-0.0013375534 0.0055000014 0.02381224
0.0014429776 0.0055000004 0.023714505
0.0039289286 0.0055000004 0.023519261
0.0061905836 0.0055000009 0.023607338
0.008709712 0.0055000014 0.023904102
0.011195622 0.0055000018 0.023532132
0.013755482 0.0055 0.023608046
0.015727153 0.005406423 0.023694716
-0.015630195 -0.0054921117 0.026387632
-0.013695453 -0.0055000009 0.026608702
-0.0112138 -0.0055000018 0.02650081
-0.0086704679 -0.0055000009 0.026147151
-0.0057766782 -0.0055000014 0.02607628
-0.0037738294 -0.0055000018 0.026370361
-0.0016461735 -0.0055000009 0.026101643
0.0011856495 -0.0055000014 0.026008476
0.0037575949 -0.0055000009 0.02644863
0.0062507447 -0.0055000009 0.026204439
0.0084079178 -0.0055000014 0.026278898
0.011325635 -0.0055000004 0.026183724
0.01354536 -0.0055000004 0.026276242
0.015571049 -0.0054250276 0.026279448
-0.016000001 -0.0038754507 0.025898695
0.016000001 -0.0040704678 0.026373314
-0.016000001 -0.0010256335 0.026439343
0.016000001 -0.00082899688 0.026349908
-0.016000001 0.0012544924 0.02615433
0.016000001 0.0014118995 0.025956551
-0.016000001 0.0032329201 0.02624217
0.016000001 0.0037336103 0.026008233
-0.015555061 0.0054632486 0.025705423
-0.013641125 0.0055000018 0.02621826
-0.011399131 0.0055000009 0.026220798
-0.0086275581 0.0055000018 0.026264146
-0.0065447162 0.0055000018 0.026166709
-0.0037590372 0.0055000014 0.026331255
-0.0010941908 0.0055000018 0.026148446
0.0018614138 0.0055 0.025847215
0.0038207162 0.0055000018 0.026470356
0.0062570511 0.0055000014 0.026281565
0.0087863691 0.0055 0.026330069
0.011312581 0.0055000009 0.026336493
0.013781083 0.0055000014 0.026362443
0.015572648 0.005469929 0.02599217
-0.015711674 -0.0054146433 0.02877683
-0.013533973 -0.0055000009 0.02863943
-0.011354046 -0.0055 0.028580397
-0.0087353932 -0.0055000014 0.028851589
-0.0062028472 -0.0055000018 0.028825715
-0.0036578332 -0.0055000014 0.028758403
-0.0010991553 -0.0055000018 0.028793508
0.0012249592 -0.0055000018 0.028699694
0.0038128477 -0.0055000009 0.028912568
0.0062175617 -0.0055000009 0.028769948
0.008685424 -0.0055000014 0.028454661
0.010964411 -0.0055000009 0.028545599
0.013830677 -0.0055 0.02884143
0.015776001 -0.0053997436 0.029063845
-0.016000001 -0.0039089005 0.028810184
0.016000001 -0.0035752794 0.028613195
-0.016000001 -0.0011319364 0.028680172
0.016000001 -0.0010926411 0.028909583
-0.016000001 0.00093613687 0.028618604
0.016000001 0.0011659656 0.028704299
-0.016000001 0.0036422771 0.028662862
0.016000001 0.0037850863 0.02888122
-0.015713748 0.0054370114 0.028701685
-0.01374543 0.0055000009 0.028651506
-0.011250785 0.0055000009 0.028675087
-0.008775224 0.0055000014 0.028712297
-0.0064914878 0.0055000014 0.029023733
-0.003977404 0.0055000004 0.028672351
-0.0014534146 0.0055000004 0.028812196
0.0014666627 0.0055000009 0.028509369
0.003739998 0.0055000018 0.02876462
0.0061404356 0.0055 0.029233618
0.008641568 0.0055 0.028709045
0.011039375 0.0055000014 0.028777935
0.013710798 0.0055000009 0.0288685
0.015435758 0.0054715523 0.028685754
-0.015751522 -0.0053861383 0.031393562
-0.013734641 -0.0054891445 0.031167692
-0.011372576 -0.0054805297 0.031030456
-0.008461996 -0.0054747537 0.031131238
-0.0059223669 -0.0054399394 0.031281881
-0.0033631548 -0.0054865158 0.031013433
-0.0014637822 -0.0054354072 0.031541619
0.0012727173 -0.0054840529 0.031138865
0.0040939162 -0.0054119579 0.031527828
0.006411999 -0.0054824492 0.030847106
0.0086611984 -0.0054281265 0.031513169
0.011116363 -0.0054686344 0.031186128
0.013826384 -0.0053968588 0.03137007
0.015469556 -0.0054503968 0.031323951
-0.015813962 -0.0038908783 0.031383898
-0.014015121 -0.0035688335 0.032000002
-0.011221174 -0.0038947214 0.032000002
-0.008759357 -0.0040433803 0.032000002
-0.006222887 -0.0033877245 0.032000002
-0.0036642724 -0.0038976995 0.032000002
-0.0011867244 -0.0036902067 0.032000002
0.0012785067 -0.0037932675 0.032000002
0.0033830374 -0.003823085 0.032000002
0.0063710636 -0.0035382442 0.032000005
0.0086429426 -0.0038243851 0.032000002
0.011209643 -0.003807114 0.032000002
0.013939291 -0.0033697898 0.032000002
0.01582827 -0.0037756029 0.031454105
-0.015793284 -0.0012962807 0.031317141
-0.014043359 -0.0011553322 0.032000002
-0.011318811 -0.0011946311 0.032000002
-0.0090820398 -0.00086086331 0.032000002
-0.0061531444 -0.0011707601 0.032000002
-0.0035221286 -0.0015679881 0.032000002
-0.0011264416 -0.0013657507 0.032000002
0.0011362714 -0.001113974 0.032000002
0.0037734706 -0.0014736865 0.032000002
0.0061318497 -0.0011598591 0.032000002
0.0087334579 -0.0014482404 0.032000002
0.011447872 -0.0013446163 0.032000002
0.01355397 -0.0013677569 0.032000002
0.015790062 -0.0012342334 0.031407431
-0.01576856 0.001243321 0.031273957
-0.013645578 0.001160339 0.032000002
-0.011466707 0.0010614475 0.032000002
-0.0088658286 0.001505259 0.032000002
-0.0060731163 0.0010471251 0.032000002
-0.0037519678 0.0014033037 0.032000002
-0.0012262474 0.0015225067 0.032000002
0.0011479594 0.001327619 0.032000002
0.0035773469 0.0010957465 0.032000002
0.0060888338 0.0012654864 0.032000005
0.0090404991 0.0010555791 0.032000002
0.011160769 0.001207987 0.032000002
0.013602787 0.0014352062 0.032000002
0.015837338 0.001228187 0.031418689
-0.015900223 0.0037866989 0.031228583
-0.013945951 0.0037747752 0.032000002
-0.011663702 0.0037959232 0.032000002
-0.0085745025 0.0037562686 0.032000002
-0.0060157538 0.0035974365 0.032000002
-0.0038603244 0.0040330561 0.032000002
-0.0011871759 0.0037571148 0.032000002
0.0011651828 0.0038713764 0.032000002
0.0037019961 0.0038698015 0.032000002
0.0062474925 0.0036723556 0.032000002
0.0087736621 0.0038399487 0.032000002
0.011169693 0.0040963073 0.032000002
0.01365506 0.0038768179 0.032000002
0.015793821 0.0036907883 0.031473819
-0.015658567 0.005386733 0.030439261
-0.01350388 0.0054517682 0.031304013
-0.011256346 0.0054852171 0.031077787
-0.0086736325 0.0054765963 0.03105787
-0.0063021546 0.0054422924 0.0311359
-0.0037355956 0.0054454631 0.031189073
-0.0013051949 0.005368189 0.031492822
0.0010789529 0.0054351729 0.031367149
0.003227788 0.00546727 0.031117247
0.0061218566 0.0054337722 0.031213079
0.0085318238 0.0054311785 0.031028699
0.011371821 0.0054525686 0.031306796
0.01397668 0.0054435926 0.03123139
0.015422995 0.0054418114 0.030561903
