# .PCD v0.7 - Point Cloud Data file format
VERSION 0.7
FIELDS x y z
SIZE 4 4 4
TYPE F F F
COUNT 1 1 1
WIDTH 379
HEIGHT 1
VIEWPOINT 0 0 0 1 0 0 0
POINTS 379
DATA ascii
-0.0089142295 -0.0054028239 0.0014397395
-0.0071111321 -0.0051359208 0.0020551006
0.0071731471 -0.0054114428 0.0021237442
0.0090804584 -0.0053392905 0.001292999
-0.0091654137 -0.0037169915 0.00096004718
-0.007073144 -0.003750786 0.0020816338
0.0069551417 -0.0037856197 0.002164054
0.0091062607 -0.0037017274 0.0011650026
-0.0092093488 -0.0013320295 0.0010143145
-0.0070360247 -0.0010945085 0.0021075604
0.0069394819 -0.0010798029 0.0021749914
0.0092269992 -0.0012439636 0.000921581
-0.0092284903 0.0013112942 0.0010851823
-0.0069343452 0.0014872766 0.0021785793
0.0069811027 0.001096622 0.0021459211
0.0091842907 0.0011279954 0.0011507436
-0.0091067068 0.0037704688 0.0011839531
-0.0069947192 0.0036098945 0.0021364102
0.0070249429 0.003830516 0.0021153002
0.0093427682 0.0036231205 0.00095470966
-0.0089058299 0.0053897132 0.0014039654
-0.0071367533 0.0053158761 0.0020372046
0.0068514314 0.0054122433 0.0023260647
0.0088611357 0.0053760931 0.0012793485
-0.0083870031 -0.0054534366 0.0035309561
-0.0064182677 -0.0054931883 0.0040692911
-0.004291242 -0.0054206462 0.0043793987
0.0038988276 -0.0053826566 0.0045485566
0.0062882672 -0.0054569123 0.0038548445
0.0084475586 -0.005419469 0.0033554656
-0.0089006945 -0.0038780214 0.0036110755
-0.0056051449 -0.0035762275 0.0031069734
-0.0041648233 -0.0035617468 0.0041129836
0.0041321395 -0.0036351404 0.0041358112
0.0058560995 -0.0037628282 0.0029316919
0.0088777533 -0.0037928522 0.0036867848
-0.0089522125 -0.0012291983 0.0034410749
-0.0058331694 -0.0011865257 0.0029477079
-0.003866011 -0.0012099098 0.0043216911
0.0037598207 -0.00125211 0.0043958612
0.0057195262 -0.00093499862 0.0030270829
0.008828029 -0.0011766365 0.003850881
-0.0087838816 0.001162934 0.0039965659
-0.0056515052 0.0011898231 0.0030745931
-0.003845833 0.0015152196 0.0043357853
0.0039566769 0.0014774798 0.0042583654
0.00569539 0.0015183503 0.0030439417
0.0088313567 0.0013850991 0.0038398935
-0.0088800779 0.0038326695 0.0036791204
-0.0058098543 0.0036665394 0.002963993
-0.0038832752 0.0036579147 0.0043096333
0.0040929252 0.0037915839 0.0041632014
0.0058417115 0.0039607631 0.0029417414
0.008840221 0.0038518906 0.0038106416
-0.0083344718 0.0054649892 0.0034420572
-0.006285897 0.0054766904 0.0038048774
-0.0038754169 0.0053700893 0.0045363596
0.0039366209 0.0054134168 0.0045504579
0.0062519959 0.0054488201 0.0036359425
0.0083677592 0.0054209735 0.0036724466
-0.0079899458 -0.0053829071 0.0061773122
-0.0062981201 -0.0055000023 0.0062772483
-0.0036407746 -0.0055000028 0.0062281615
-0.0015182197 -0.0054375557 0.0064503751
0.0013204128 -0.0054191989 0.006676842
0.0037467016 -0.0054848883 0.0063269688
0.0063383239 -0.0055000023 0.0061922348
0.007903642 -0.0054347413 0.0059376247
-0.0081266658 -0.0036735581 0.0061653843
-0.0026009444 -0.0036987562 0.0052052923
-0.0012638796 -0.003671854 0.0061389501
0.0012303035 -0.0036856793 0.0061601228
0.0026070725 -0.0037284784 0.0052010119
0.0080802552 -0.0038844505 0.006318544
-0.0081185577 -0.0013358252 0.0061921445
-0.0027001807 -0.0014303444 0.0051359795
-0.0012767483 -0.0011700651 0.006130192
0.0013312872 -0.0012619958 0.0060911085
0.0026493242 -0.0013665663 0.0051715001
0.0081001008 -0.0010451031 0.0062530502
-0.0080346558 0.0012212923 0.0064690202
-0.0027345431 0.001356969 0.0051119784
-0.0011899134 0.0012021456 0.0061908429
0.0013759332 0.0012179828 0.0060609151
0.0027299786 0.0010366455 0.0051151663
0.0080531109 0.0012235416 0.0064081191
-0.0080817575 0.0035223598 0.0063135903
-0.002649022 0.0035316553 0.0051717116
-0.0010522613 0.0037521892 0.0062856264
0.0011267216 0.003829509 0.0062336391
0.0026881692 0.0034028583 0.0051443689
0.0080695376 0.0038826594 0.0063539091
-0.0079793697 0.0053320234 0.0060962383
-0.0064014615 0.0055000023 0.0061976388
-0.0037451589 0.0054909112 0.0059288363
-0.0014925371 0.0054026153 0.0064138644
0.0016166993 0.0054213461 0.0065142023
0.0036718955 0.0054834834 0.0060110362
0.0063898535 0.0055000023 0.0061491099
0.0078417044 0.0054087671 0.0062197112
-0.0076323147 -0.0053273323 0.0077967518
-0.0062897224 -0.0054709199 0.0087323291
-0.0036644915 -0.0055000023 0.0087404698
-0.0012966797 -0.0055000018 0.0086358674
0.001389317 -0.0055000023 0.008726838
0.003791203 -0.0055000014 0.0087225903
0.0061603147 -0.0054717148 0.0089430418
0.0075772544 -0.0055 0.0076304772
-0.0075923642 -0.0041214125 0.0079285912
-0.0071928618 -0.0036994508 0.0092469528
0.0073120571 -0.0038799248 0.0088536069
0.0076152799 -0.0039773625 0.0078529669
-0.0076081976 -0.001377826 0.0078763394
-0.0071977042 -0.0013133457 0.0092309723
0.0072326115 -0.0010508813 0.0091157807
0.0076160049 -0.0013105923 0.0078505743
-0.0076011219 0.001503943 0.0078996895
-0.0072044232 0.0011899146 0.0092088021
0.0072220359 0.0010959328 0.0091506774
0.007622926 0.0010036537 0.0078277327
-0.0076070912 0.0038432369 0.0078799902
-0.0072290697 0.0040424597 0.009127466
0.0072153476 0.0036898663 0.0091727506
0.0076031727 0.0036039099 0.0078929216
-0.007596781 0.0053347992 0.0079140142
-0.0061836243 0.0054788156 0.0085792085
-0.0035922383 0.0055000023 0.008778817
-0.0012540142 0.0055000009 0.0088948002
0.0013245618 0.0055000018 0.0085726101
0.0036361672 0.0055000028 0.0087308884
0.0063823629 0.0054752538 0.0086728046
0.00769505 0.0054340903 0.0075897258
-0.0062172753 -0.0054545254 0.010996065
-0.0036201605 -0.0055000023 0.011133871
-0.0012283708 -0.0055000023 0.011232913
0.0012907648 -0.0055000023 0.011143356
0.003521566 -0.0055000009 0.011272416
0.0060706777 -0.005418181 0.011297673
-0.0068432521 -0.0038335607 0.011490985
0.0067504081 -0.0037917995 0.011450004
-0.0068589281 -0.0012224321 0.011460382
0.0068450924 -0.0013638175 0.011449884
-0.0068560243 0.0011384551 0.011274999
0.0067444248 0.0011538618 0.01137993
-0.0067679929 0.0037213138 0.011259639
0.0067266505 0.0038028194 0.01128574
-0.0063041523 0.0054141032 0.011328157
-0.0037835739 0.0055000023 0.011245525
-0.0010170524 0.0055000014 0.01115939
0.0012456838 0.0055000023 0.011254369
0.0039911116 0.0055000023 0.011308389
0.006199419 0.0054247305 0.011356312
-0.0085944999 -0.0054336502 0.014016357
-0.0060948478 -0.0055000018 0.0136201
-0.0034709433 -0.0055000023 0.013591179
-0.0012229691 -0.0055000018 0.013866002
0.0013010607 -0.0055000023 0.01385134
0.0037057388 -0.0055000023 0.014048105
0.0062564691 -0.0055000018 0.013993331
0.0086542899 -0.0053782905 0.013962043
0.010694833 -0.0052392008 0.014922765
-0.010435907 -0.0032606355 0.014727242
-0.0088198408 -0.0036988868 0.013506903
0.008816666 -0.0036562916 0.013504502
0.010327367 -0.0036623196 0.014645278
-0.010465004 -0.0010297206 0.014749214
-0.0087251104 -0.0012538717 0.013435367
0.0074950191 -0.00045982352 0.012506488
0.0087567866 -0.0013561494 0.013459285
0.01045596 -0.0010184696 0.014742387
-0.010393175 0.0011328235 0.014694975
-0.0087634949 0.0010342447 0.013464355
0.0088317487 0.0010565786 0.013515894
0.010286603 0.0011025601 0.014614499
-0.010371083 0.0038391761 0.01467829
-0.0086866952 0.0037455913 0.013406359
0.0074930652 0.0030503611 0.012505013
0.0088463482 0.0037912945 0.013526917
0.010366427 0.0036549442 0.014674774
-0.010292055 0.005307151 0.014665714
-0.0083879791 0.0054710303 0.013940841
-0.0061520645 0.0055000018 0.013822732
-0.0038121485 0.0055000023 0.01366576
-0.0014040289 0.0055000023 0.013707665
0.0013204316 0.0055000018 0.013730503
0.0036478017 0.0055000023 0.013671665
0.0060061603 0.0055000023 0.013820962
0.0085746488 0.0053874827 0.01394122
0.010080904 0.005205269 0.014459169
-0.013018504 -0.0053840857 0.016899837
-0.011329041 -0.0054721297 0.016301773
-0.0086722244 -0.0055000023 0.016074715
-0.0063511571 -0.0055000023 0.016439648
-0.0036048037 -0.0055000023 0.016127678
-0.0011717697 -0.0055000023 0.016320389
0.0013609437 -0.0055000018 0.016638512
0.0036893727 -0.0055000023 0.016369717
0.0061121155 -0.0055000023 0.016017506
0.0089703072 -0.0055000023 0.016428541
0.011053174 -0.0054612993 0.016075801
0.013215159 -0.0053589749 0.016928287
-0.01352198 -0.0035773206 0.017057629
-0.011687142 -0.0038872387 0.01567209
0.011761437 -0.0038376525 0.015728191
0.013244001 -0.003887414 0.01684772
-0.013012988 -0.0011628629 0.016673274
-0.011676968 -0.0014495375 0.015664404
0.011576255 -0.0012629356 0.015588353
0.013066864 -0.0012480915 0.016713956
-0.013150152 0.0014465007 0.01677685
-0.011520463 0.0011134854 0.015546227
0.011606544 0.0012159952 0.015611228
0.013242342 0.0014886425 0.016846465
-0.013291297 0.0035816189 0.016883433
-0.011655496 0.0036442378 0.015648192
0.011515588 0.0036292926 0.01554254
0.013304369 0.0037616529 0.016893305
-0.013177285 0.005489069 0.017117562
-0.011291778 0.0054643559 0.016426766
-0.0089230072 0.0055000023 0.016423648
-0.0061192517 0.0055000023 0.016140945
-0.0040418725 0.0055000018 0.016156796
-0.0010646948 0.0055000023 0.016298415
0.0013491132 0.0055000018 0.016250057
0.0039528674 0.0055000014 0.016254578
0.0061690826 0.0055000023 0.016227728
0.0086712511 0.0055000023 0.016322108
0.011024016 0.0054328898 0.01622775
0.013216544 0.0053397589 0.016939718
-0.015571356 -0.0053427289 0.018796876
-0.01370467 -0.0054305624 0.018450411
-0.011281931 -0.0054185074 0.018583087
-0.0088372324 -0.0054702577 0.018518087
-0.0064374707 -0.0054438589 0.01860036
-0.0037945413 -0.0055000014 0.018590171
-0.0014168579 -0.0055000028 0.018680062
0.0011979386 -0.0055000023 0.018976077
0.003667294 -0.0054731187 0.018660527
0.0058956644 -0.0054485947 0.018479308
0.0088864937 -0.005462836 0.018362498
0.011026408 -0.0054498641 0.018571967
0.013671284 -0.0054133194 0.018710753
0.015539236 -0.0053205551 0.018871101
-0.015479533 -0.0037023558 0.018755108
-0.013986658 -0.0037473862 0.018747471
-0.011213124 -0.0038568042 0.019148691
-0.0087495651 -0.0035856464 0.019198345
-0.0062584775 -0.0035095811 0.019248554
-0.0042330013 -0.0036777889 0.019423466
0.0041507804 -0.00394993 0.019457312
0.0062678033 -0.0038173513 0.019248368
0.0088801458 -0.0036095381 0.019195713
0.011343407 -0.0035453637 0.019146066
0.013736879 -0.0039571184 0.018851222
0.015635407 -0.0036899101 0.018843455
-0.015565792 -0.0012493463 0.018826699
-0.014020201 -0.0011460013 0.018624367
-0.011073947 -0.0012744503 0.019151499
-0.0085979691 -0.0010034012 0.0192014
-0.0062113162 -0.0012862793 0.019249508
-0.0040878761 -0.0014160742 0.01954823
0.0042109606 -0.0015615448 0.019454863
0.0061532464 -0.0013721668 0.019250678
0.0087827947 -0.0012121539 0.019197676
0.011222404 -0.001230487 0.019148506
0.014233061 -0.0014857578 0.018455613
0.01563504 -0.0010866621 0.018852176
-0.015570639 0.0013569893 0.018831173
-0.013848522 0.0010221722 0.018662227
-0.011230177 0.0013460201 0.019148346
-0.0085926848 0.0011997201 0.019201508
-0.0064305644 0.0011935162 0.01924509
-0.0041455622 0.001119331 0.019477136
0.0044548879 0.0012920576 0.019333247
0.0063107866 0.0011440564 0.019247502
0.0088050365 0.0011995556 0.019197229
0.01104935 0.0013830098 0.019151991
0.014027901 0.0013875155 0.01860439
0.015568653 0.001112288 0.01877439
-0.015496731 0.0037146509 0.018756919
-0.014207731 0.0038487355 0.01875666
-0.011514381 0.0039176811 0.01914262
-0.0087339068 0.0040847939 0.019198662
-0.0060343966 0.0037573623 0.019253075
-0.0044335043 0.0034913553 0.019369889
0.0043094298 0.003680547 0.019444617
0.0061626541 0.0035255507 0.019250488
0.0089066625 0.0037306068 0.01919518
0.011289006 0.0035187346 0.01914716
0.014128412 0.0036415851 0.018737886
0.015642742 0.0037162381 0.018904682
-0.015425396 0.0052749682 0.018789541
-0.013558144 0.0054212073 0.018521857
-0.011393129 0.0054301713 0.018554915
-0.0089025376 0.0054397937 0.01868625
-0.0061404747 0.005454374 0.018610319
-0.0036525298 0.0054864343 0.018627102
-0.0010988977 0.0055000018 0.018559644
0.0011384658 0.0055000023 0.018731633
0.0036526939 0.0054673483 0.018716328
0.005984412 0.0054836855 0.01853098
0.0087331003 0.0054333112 0.018538825
0.01140708 0.0054678684 0.018531365
0.013699418 0.0054127276 0.018392054
0.015665583 0.0053206524 0.018835993
-0.003093604 -0.0054653971 0.020896485
-0.0011085378 -0.0055000023 0.02101725
0.0011780257 -0.0055000023 0.021303568
0.0032227796 -0.0052976925 0.021014687
-0.0032673241 -0.0039099017 0.021373333
0.0032551803 -0.0036781603 0.021408364
-0.0033210767 -0.0013155546 0.021218276
0.0032973243 -0.00096949231 0.021286795
-0.0033504458 0.0011991046 0.021133555
0.003340581 0.0012153258 0.021162013
-0.0032754086 0.0035583749 0.021350009
0.0032223978 0.0036978435 0.021502929
-0.0031599633 0.0053940648 0.021055451
-0.0014090146 0.0055000023 0.021350171
0.0013059492 0.0055000009 0.021078495
0.0031198561 0.0054496261 0.021100231
-0.0013706096 -0.0054365667 0.023836425
0.0013133507 -0.005478553 0.023632864
0.0026787487 -0.0053310222 0.02293076
-0.0027142197 -0.003504084 0.022968823
-0.0022106979 -0.0039794599 0.02442129
0.0022764173 -0.0037344215 0.024231715
0.0026773294 -0.0039925179 0.023075238
-0.002697614 -0.0012018058 0.023016725
-0.0022382769 -0.0010351413 0.024341736
0.0022656084 -0.001291959 0.02426289
0.0027332911 -0.0015077607 0.02291381
-0.0026937667 0.0012648469 0.023027821
-0.0022493424 0.0011746155 0.024309814
0.0022156769 0.0010692319 0.024406925
0.0027333852 0.0015333869 0.022913536
-0.0026979824 0.0042505218 0.023015659
-0.0022890747 0.0037665241 0.024195205
0.002289104 0.0036498199 0.02419512
0.0026675125 0.0036777197 0.023103554
-0.0025989811 0.0052198106 0.023258073
-0.0013689565 0.0054757679 0.023775561
0.001416348 0.0054714321 0.023593742
0.0026853769 0.0053183399 0.023050185
-0.0010040278 -0.005458816 0.025995396
0.00088926399 -0.0054484308 0.02619276
-0.0015394435 -0.003587645 0.026357599
0.001585454 -0.0036862311 0.026224878
-0.0015278717 -0.0014265497 0.026390979
0.0016414615 -0.0012408554 0.026063316
-0.0015175543 0.00087223324 0.02642074
0.0015269566 0.0013729738 0.026393617
-0.001531555 0.003838405 0.026380355
0.0015756189 0.0036727227 0.026253246
-0.0010331472 0.0054283338 0.026260287
0.00099541759 0.0054435828 0.025947968
-0.00051034312 -0.0053317798 0.02842642
0.00058205961 -0.0054182131 0.028636442
-0.0007488383 -0.0036807458 0.028638188
0.00074520661 -0.0037467657 0.028648661
-0.00074583251 -0.0011533527 0.02864686
0.00062024529 -0.0012926853 0.02900913
-0.00076602283 0.0012347291 0.028588617
0.00071664009 0.0012390696 0.028731072
-0.0007473249 0.0037558409 0.028642558
0.00067887007 0.0036596074 0.028840018
-0.00051529083 0.0054083662 0.028575426
0.00043003884 0.0054518916 0.028756307
-0.00017349416 -0.0053087212 0.030297836
5.8091951e-05 -0.0055 0.030153979
-0.0001705007 -0.003819234 0.03030647
0.00010142216 -0.0038452737 0.030505735
-0.00016357619 -0.001404431 0.030326443
0.00011202819 -0.0010246361 0.030475141
-0.00016917495 0.0019178062 0.030310294
0.00011690894 0.0014841243 0.030461062
-0.00012380819 0.0038296813 0.030441159
0.00011857795 0.0039144112 0.030456249
0.00020337907 0.0050613661 0.030211629
