# .PCD v0.7 - Point Cloud Data file format
VERSION 0.7
FIELDS x y z
SIZE 4 4 4
TYPE F F F
COUNT 1 1 1
WIDTH 1291
HEIGHT 1
VIEWPOINT 0 0 0 1 0 0 0
POINTS 1291
DATA ascii
0.0064082104 -0.0125 0.0055033998
0.0086252689 -0.012500002 0.0062950728
0.011540077 -0.012500002 0.0060876613
0.012500001 -0.011237239 0.0061058807
-0.0125 -0.0089477757 0.0059654475
0.0125 -0.0092377765 0.005969184
-0.012500001 -0.0063233231 0.0065726661
-0.012500001 -0.0060301297 0.0058233929
0.012500002 -0.0060479324 0.0063149096
-0.012500001 -0.004326426 0.0065963962
-0.0125 -0.0039436207 0.0060037179
0.012499999 -0.0038205399 0.0053089298
0.012500002 -0.0039249258 0.0059859934
-0.012500001 -0.00036282232 0.0057809497
-0.012500001 -0.0012986532 0.0064339447
0.012500002 -0.00123218 0.0061058998
-0.0125 0.0012077269 0.0062153297
-0.012500002 0.0012814597 0.0062837787
0.012499999 0.0013960518 0.0060850526
0.012500002 0.0017225655 0.0066325325
-0.012500001 0.0034086313 0.0066831456
-0.012499999 0.0036055648 0.0068969615
0.012499999 0.003743771 0.0071201446
0.012500001 0.003821718 0.0060729557
-0.012500001 0.0061182869 0.0057149143
-0.0125 0.0062381155 0.0067313737
0.012499999 0.0062756427 0.0062267077
0.012500002 0.0063303635 0.0057495255
-0.012500002 0.008715813 0.0064009461
0.012499999 0.0079956744 0.0064799408
0.012500001 0.0087233195 0.0058947043
-0.012500001 0.011590885 0.006421858
-0.0053750444 0.012499999 0.0072888853
-0.0048777643 0.012499999 0.0055168034
-0.0015205666 0.012499999 0.0062268018
0.0015337169 0.012499999 0.005787638
0.0036001229 0.012499999 0.0053938627
0.0088725621 0.012499999 0.0074584233
0.01216222 0.011837713 0.0064042751
0.012500002 0.011948137 0.005935281
-0.011153603 0.012500002 0.0062586721
-0.0087217316 0.012500002 0.006446105
-0.0062850546 0.0125 0.006118665
-0.0033683702 0.0125 0.0068239253
-0.0014792543 0.012500001 0.0064375252
0.0007238703 0.012500001 0.006512837
0.0035203281 0.012500001 0.0061487374
0.0059785568 0.012500002 0.0066025597
0.0088353883 0.012500002 0.006330776
0.011304289 0.012500001 0.0062854877
-0.0088947425 -0.0125 0.0085081179
-0.0056434991 -0.012500001 0.0095116841
-0.0047791256 -0.012500001 0.0095467363
-0.0015650567 -0.012500002 0.0088646496
0.0015119589 -0.012500002 0.0088172173
0.0042271176 -0.012500001 0.0080649974
0.0060976706 -0.012500001 0.0080240378
0.0086267628 -0.012500001 0.0082448572
0.01044745 -0.012500001 0.0083348993
-0.011508357 -0.012183017 0.0085892323
-0.008769203 -0.012500001 0.0089370115
-0.0061909189 -0.0125 0.0088606849
-0.0040414641 -0.012500001 0.0089678289
-0.00074795715 -0.0125 0.0088665383
0.0020744952 -0.012499999 0.0086725987
0.0033061958 -0.0125 0.0086956201
0.0065743783 -0.0125 0.0091711711
0.0090384195 -0.012500002 0.0083995583
0.011275588 -0.012500001 0.00895481
0.012500002 -0.011148271 0.0086481953
-0.012500001 -0.0082258731 0.0088713942
-0.0125 -0.0084327953 0.0087744398
0.012500001 -0.008578768 0.0091949413
-0.012500001 -0.0060884161 0.0090622362
-0.012500001 -0.0064457329 0.0088726906
0.012500001 -0.006376809 0.008696666
-0.012500002 -0.0036963036 0.008584355
-0.012500001 -0.0035349075 0.0090362495
0.012499999 -0.0035957112 0.0085078971
0.012500002 -0.0035636635 0.0088181878
-0.012500001 -0.00084300432 0.0084408568
-0.012500001 -0.0015454406 0.0085629076
0.012499999 -0.0011695274 0.0093707554
0.012500001 -0.0016921528 0.0087232422
-0.0125 0.0016969325 0.0087314481
-0.0125 0.0019851851 0.0091953017
0.012499999 0.0012032366 0.0082705859
0.012500001 0.0014271783 0.0086368583
-0.012500001 0.0038648001 0.00877437
-0.012499999 0.0036071211 0.0085829953
0.012499999 0.0029573583 0.0089657912
0.012500002 0.0039610066 0.0085720057
-0.012500002 0.0061210617 0.0085535645
-0.0125 0.0056133131 0.0089080352
0.012499999 0.0067423675 0.0098925885
0.012500002 0.0066372561 0.0086458316
-0.012500001 0.0085560484 0.0088571599
0.012499999 0.0094879251 0.0091655934
0.012500001 0.0086349882 0.0092100156
-0.012500001 0.011128817 0.0088322004
-0.012500002 0.011137252 0.0085415738
0.00058523682 0.012499999 0.0087798815
0.0041164192 0.012499999 0.0087943887
0.0055284025 0.012499999 0.0093003865
0.012019241 0.011380841 0.009278073
0.012500001 0.011204834 0.008498189
-0.011143116 0.012500001 0.0087384991
-0.0089730881 0.012500001 0.0088660764
-0.006241736 0.012500002 0.0087044844
-0.003617761 0.012500002 0.0088275457
-0.0014226709 0.012500001 0.0086099105
0.0013745829 0.012500002 0.0090434309
0.0033523648 0.012500002 0.0088215517
0.0063167489 0.012500002 0.0086583253
0.0087420968 0.0125 0.0085071567
0.011516674 0.012500001 0.0087344144
-0.011433373 -0.012500001 0.010743398
-0.0082607195 -0.012500001 0.011526519
-0.0053085936 -0.012500001 0.011963342
-0.0039176201 -0.0125 0.011777108
-0.00079719815 -0.012500001 0.010497564
0.0012868203 -0.012500001 0.011116471
0.0034394907 -0.012500001 0.010724643
0.006008558 -0.012500002 0.010993282
0.01131456 -0.012500001 0.011857493
-0.0125 -0.011097792 0.01124246
-0.011936451 -0.011625235 0.011277827
-0.0086081875 -0.012500001 0.01181291
-0.0068908758 -0.0125 0.011762909
-0.0038461692 -0.0125 0.012342739
-0.00093521178 -0.012499998 0.010591145
0.0016392438 -0.012500001 0.011068082
0.0039046772 -0.012500001 0.011029303
0.0069587175 -0.012500001 0.011368487
0.0090011889 -0.012500001 0.011652294
0.011684311 -0.0125 0.011490708
0.012500002 -0.011252302 0.011403574
-0.012500001 -0.0077642282 0.011608598
-0.012499999 -0.0089203017 0.011936208
0.012500001 -0.0090567097 0.010908001
-0.012500001 -0.0066004335 0.011349211
-0.012500001 -0.0062172795 0.011249733
0.012499999 -0.0060228105 0.012107211
0.012500002 -0.0065021045 0.010975302
-0.012500001 -0.0039781928 0.011386217
-0.0125 -0.0034899267 0.011335559
0.012499999 -0.0044048741 0.012159074
0.012500001 -0.0039198855 0.010924313
-0.0125 -0.0014793859 0.010861208
-0.012499999 -0.0015501195 0.011144738
0.0125 -0.00079670269 0.011230484
-0.0125 0.0011792148 0.011591603
0.012499999 0.0010875617 0.011567034
0.012500001 0.00062457228 0.011051856
-0.012500001 0.0038545989 0.011190033
-0.0125 0.0036040724 0.010466183
0.012499999 0.0038720255 0.011751137
0.0125 0.0035337124 0.011223219
-0.012500001 0.006584723 0.011667453
-0.0125 0.0067138728 0.010932837
0.012500001 0.006199202 0.011543834
-0.012500001 0.0083671194 0.010820497
-0.0125 0.0088798478 0.011338273
0.012499999 0.0085349847 0.011185767
0.012500001 0.0086030792 0.011360421
-0.012500001 0.010603549 0.010197318
-0.012500001 0.010902873 0.011019414
-0.0063468572 0.012499999 0.012222281
0.00066353101 0.012499999 0.011201259
0.0065072579 0.012499999 0.012062
0.011417106 0.011771034 0.011668408
0.012500002 0.010964754 0.010902901
-0.011572286 0.012500002 0.010798531
-0.0084453281 0.012500001 0.011181404
-0.0062437681 0.012500001 0.011224496
-0.0036445134 0.012500002 0.011579421
-0.0014928492 0.012500001 0.01095775
0.0012574914 0.012500002 0.010947931
0.0040040477 0.012500002 0.010857888
0.0060845092 0.012500002 0.01151228
0.0090205092 0.012500002 0.011002872
0.01116357 0.0125 0.011053259
-0.010925631 -0.012500001 0.013531411
-0.0079990923 -0.012500001 0.013772761
-0.0057584676 -0.012500001 0.013942468
-0.0033654589 -0.012500001 0.013716744
-0.00059218588 -0.012500001 0.012543747
0.0010472628 -0.012500002 0.013453282
0.0031138947 -0.0125 0.013691465
0.0068073957 -0.012500001 0.014378944
0.0088366941 -0.012500001 0.013092982
0.010293773 -0.012500001 0.014456594
-0.012500001 -0.012468124 0.013271875
-0.011542811 -0.012104067 0.013835686
-0.0087146964 -0.012500001 0.013664542
-0.0059098485 -0.012500001 0.013920495
-0.0039379937 -0.012499999 0.014098679
-0.00095867366 -0.012499999 0.013382168
0.0013367574 -0.0125 0.014015891
0.0040259031 -0.0125 0.013364842
0.0059325644 -0.012500001 0.013402169
0.0091368426 -0.012500001 0.013907096
0.011293448 -0.012500001 0.01366727
0.012500002 -0.011386734 0.013415312
-0.012500002 -0.0090020131 0.01364413
0.012500002 -0.0085374378 0.013326536
-0.0125 -0.0067273141 0.013266292
-0.0125 -0.0059132208 0.013496428
0.012500001 -0.0061022318 0.013892904
-0.0125 -0.0033939776 0.013656518
-0.012499999 -0.0035885654 0.013687358
0.012499999 -0.0042686551 0.013678826
0.012500002 -0.0037513485 0.013193737
-0.012500002 -0.0016121976 0.013608764
-0.012500001 -0.0011883174 0.013696907
0.012499999 -0.00044045225 0.014384305
0.012500001 -0.0012708022 0.013781677
-0.012500001 0.00024379836 0.012952781
-0.0125 0.0013300388 0.013653144
0.012500001 0.00089143129 0.013977345
-0.012500001 0.0043102861 0.014477788
-0.0125 0.0035349608 0.013953403
0.012499999 0.0033722082 0.014091976
0.012500001 0.0031397571 0.013320521
-0.012500002 0.0057959748 0.014242597
-0.012499999 0.0062995479 0.013610236
0.012499999 0.0058004726 0.014916874
0.012500002 0.0060756928 0.013974836
-0.012500002 0.0085740993 0.014075718
-0.012500001 0.0085096415 0.01356627
0.012499999 0.0098830648 0.012721758
0.012500002 0.008982324 0.013120592
-0.012500001 0.011981586 0.012889704
-0.012500001 0.011056309 0.013863862
-0.0059858002 0.012499999 0.013272029
-0.0012917959 0.012499999 0.013568697
0.0039815274 0.012499999 0.013089651
0.0058017261 0.012499999 0.01438812
0.0099498807 0.012499999 0.013938254
0.0125 0.011396076 0.01383235
-0.011424559 0.012500002 0.013773363
-0.0085538011 0.012500002 0.013739372
-0.0065055727 0.0125 0.013159257
-0.0037089719 0.012500001 0.013671503
-0.0013917412 0.0125 0.013605023
0.0010390192 0.012500001 0.013321842
0.0036097921 0.012500001 0.013391979
0.0063051791 0.0125 0.014585166
0.0089909947 0.0125 0.013629403
0.011475271 0.012500002 0.01402908
-0.011396744 -0.012500002 0.016432432
-0.0089932242 -0.0125 0.016512329
-0.0063732825 -0.012500001 0.016565628
-0.0036673388 -0.012500002 0.016006801
-0.0012242548 -0.012500002 0.016277134
0.0010226014 -0.012500001 0.016113138
0.0036965795 -0.012500001 0.016125489
0.0059431982 -0.012500002 0.016556894
0.0086180642 -0.012500002 0.016427038
0.012441892 -0.012500001 0.01608379
-0.012121029 -0.011697266 0.016354559
-0.0090306606 -0.0125 0.015871229
-0.0067542521 -0.012499999 0.015662303
-0.0037006433 -0.012500001 0.016410686
-0.001167544 -0.0125 0.016842419
0.0038382856 -0.012500001 0.016316658
0.0052914964 -0.0125 0.015931631
0.0089411605 -0.012499999 0.015990563
0.011062816 -0.012499999 0.016227648
0.012500002 -0.011404864 0.016056785
-0.012500001 -0.0096531864 0.016049517
-0.0125 -0.0083009517 0.015988756
0.012499999 -0.0094961673 0.016287951
0.012500001 -0.0084751062 0.016253179
-0.012500001 -0.0064165746 0.016277758
-0.0125 -0.0064037852 0.016216474
0.012500002 -0.0064666197 0.015935261
-0.012500001 -0.003832496 0.016357426
-0.0125 -0.0041092378 0.016724808
0.012499999 -0.0037294293 0.015857678
0.012500001 -0.0038802368 0.016068392
-0.012500001 -0.000737458 0.016145455
-0.012499998 -0.0011111017 0.016027953
0.012499999 -0.0011760795 0.016637413
0.012500002 -0.0011406238 0.016520102
-0.012500001 0.00084281294 0.015784239
-0.012500001 0.0015496976 0.016146071
0.012499999 0.00092552759 0.016271463
0.012500001 0.0014110889 0.016714012
-0.012499999 0.0036929494 0.016207453
0.012500001 0.0038232263 0.016190011
-0.012500001 0.0063590189 0.016565878
-0.012500001 0.0062459284 0.016136555
0.012499999 0.0062178522 0.016263092
0.012500002 0.0060453028 0.01634513
-0.012500001 0.0099879056 0.015487809
-0.0125 0.0086569376 0.016634297
0.012499999 0.0090369321 0.015175242
0.012500001 0.0089075528 0.01634627
-0.012500001 0.010477813 0.016028145
-0.011973329 0.012161564 0.016940044
-0.0058127139 0.012499999 0.016112661
-0.003240197 0.012499999 0.016362628
-0.0012065575 0.012499999 0.016590644
0.0013429984 0.012499999 0.015660159
0.0035897777 0.012499999 0.01603174
0.0063623702 0.012499999 0.015770452
0.0087472647 0.012499999 0.016483584
0.010176703 0.012499999 0.015486096
0.012500001 0.011186791 0.015862044
-0.011280087 0.012500002 0.015903847
-0.0090100123 0.012500001 0.01588176
-0.0062863478 0.012500002 0.016011536
-0.0039907368 0.012500001 0.016075354
-0.0014776498 0.012500002 0.016082631
0.0011711518 0.012500001 0.01586394
0.0036152878 0.012500002 0.016232569
0.0062804823 0.012500002 0.016072063
0.0091984356 0.012500002 0.015867673
0.01099464 0.012500002 0.016431293
-0.011110424 -0.0125 0.018593155
-0.0091781598 -0.012500001 0.019110408
-0.0054975823 -0.012500001 0.01801954
-0.0037669293 -0.012500001 0.018873945
-0.0012832386 -0.012500001 0.018119732
0.0013577432 -0.0125 0.018515928
0.0068407706 -0.012500001 0.017695034
0.0087643405 -0.012500001 0.018629935
0.012220468 -0.012500001 0.017542658
-0.012500001 -0.011930014 0.019420907
-0.011385409 -0.01230243 0.018436614
-0.0085538868 -0.0125 0.019056771
-0.0062591308 -0.012499999 0.018685272
-0.0031920469 -0.012500001 0.018857908
-0.0017434444 -0.012499999 0.01888705
0.00086201169 -0.012499999 0.019051889
0.0040355474 -0.012500001 0.018640498
0.0063765594 -0.012500001 0.018749727
0.0085727936 -0.012499999 0.018666914
0.010661175 -0.012500002 0.018655369
0.012500002 -0.011139446 0.018813182
-0.012500001 -0.0087808073 0.018480357
-0.012499999 -0.0087132659 0.018738851
0.0125 -0.0081908582 0.018614998
-0.012500001 -0.0064449576 0.018141858
-0.012500001 -0.0063539995 0.018617967
0.012499999 -0.0062143188 0.019835513
0.012500002 -0.0060224379 0.018627351
-0.012500001 -0.0031670597 0.017563837
-0.012499999 -0.0035562492 0.019274523
0.012499999 -0.003261884 0.018633239
0.012500001 -0.0039131781 0.018410195
-0.0125 -0.0021753048 0.017858865
-0.012499999 -0.0012971193 0.018331021
0.012499999 -0.0011888617 0.018550742
0.012500002 -0.0012076236 0.019011205
-0.012500001 0.0015534038 0.018249922
-0.0125 0.0012941302 0.018747093
0.012499999 0.0011391902 0.018032786
0.012500001 0.00089671073 0.018906573
-0.012500002 0.0039973375 0.018551942
-0.012499999 0.0032738999 0.018522322
0.012499999 0.0029998007 0.017845009
0.012500001 0.0039457302 0.019141376
-0.0125 0.0062672007 0.019520285
-0.0125 0.0063665002 0.018862946
0.012499999 0.006509929 0.019794639
0.012500002 0.006355166 0.01888141
-0.0125 0.0086466437 0.019192418
0.012499999 0.0084153637 0.017545003
0.012500002 0.0087330928 0.018895732
-0.012500001 0.011353406 0.019014753
-0.0062114811 0.012499999 0.018107524
-0.002503508 0.012499999 0.018425664
-0.0022532523 0.012499999 0.018588576
0.0011874693 0.012499999 0.018692231
0.0064620255 0.012499999 0.019817609
0.0091169449 0.012499999 0.019272111
0.010484852 0.012499999 0.019193463
0.012500001 0.011596153 0.018905947
-0.011410147 0.012500002 0.018827837
-0.0086985137 0.012500002 0.01893623
-0.0060271281 0.012500002 0.01897152
-0.0037228009 0.012500002 0.019016596
-0.0013730281 0.012500001 0.019038485
0.0012539738 0.012500001 0.01885834
0.003840659 0.012500002 0.018507509
0.0058836034 0.012500002 0.018591169
0.009008009 0.012500002 0.018722448
0.011767661 0.012500002 0.018705517
-0.0088131148 -0.012500001 0.021535829
-0.0060817413 -0.012500002 0.021361595
-0.0041220253 -0.012500001 0.02017916
-0.0016676423 -0.012500001 0.02157983
0.0015254526 -0.012500001 0.021107059
0.0031634823 -0.012500001 0.021728925
0.0095639806 -0.012500001 0.021086931
-0.012500001 -0.010762571 0.020724043
-0.011793436 -0.011861288 0.021426231
-0.0084248139 -0.012500002 0.021112138
-0.0062218183 -0.012499999 0.021201639
-0.0034333281 -0.0125 0.021515954
-0.0010950211 -0.012500001 0.02143573
0.00095535844 -0.012500001 0.021029832
0.0037573706 -0.0125 0.021579795
0.0059022764 -0.012500001 0.020893227
0.008778478 -0.012500001 0.02162252
0.011418482 -0.012500001 0.021517139
0.012500002 -0.011063972 0.020940458
-0.012500001 -0.0096276207 0.021311153
-0.012499999 -0.0085778553 0.021058647
0.012500002 -0.0085070608 0.021057198
-0.0125 -0.0066852905 0.021099502
-0.0125 -0.0064155208 0.021401715
0.012499999 -0.0067580412 0.020191485
0.012500001 -0.006313439 0.021058181
-0.0125 -0.0042221253 0.020976355
-0.012499999 -0.0039319787 0.020998672
0.012499999 -0.0033654652 0.021250658
0.012500001 -0.003971003 0.02140991
-0.0125 -0.0011982679 0.02139703
-0.012500001 -0.00082211767 0.021231242
0.012500002 -0.001345008 0.021058515
-0.0125 0.0012655352 0.021661559
-0.0125 0.001774605 0.021146409
0.012499999 0.0010620928 0.021334568
0.012500002 0.0013786029 0.020908229
-0.0125 0.0034957014 0.021212863
-0.0125 0.0032162734 0.021958649
0.012499999 0.0038583055 0.020520864
0.012500002 0.00345854 0.020893918
-0.012500001 0.0061459122 0.02170952
-0.0125 0.0053433245 0.021408008
0.012499999 0.0053847576 0.021322874
0.0125 0.0060461429 0.020894118
-0.012500001 0.0079616569 0.021652121
-0.012500001 0.0084233787 0.021177985
0.012499999 0.0090529788 0.021949461
0.012500001 0.0084690135 0.021136226
-0.0125 0.011281236 0.021321509
-0.0075340369 0.012499999 0.020706072
-0.0013549002 0.012499999 0.020137882
0.0023315637 0.012499999 0.021007011
0.0033884507 0.012499999 0.020879269
0.0065920167 0.012499999 0.021113841
0.01222619 0.011499169 0.021691455
0.0125 0.010757118 0.021483522
-0.011047931 0.012500001 0.021197824
-0.0082326503 0.012500002 0.021397889
-0.006246814 0.012500001 0.021559533
-0.0036574986 0.0125 0.021020954
-0.00093866774 0.012500002 0.021510312
0.0014210995 0.012500002 0.021097071
0.0044206311 0.0125 0.021610102
0.0064343289 0.0125 0.021319985
0.0085259387 0.012500002 0.021668358
0.011210142 0.012500002 0.021318577
-0.011173761 -0.012500001 0.024019675
-0.0081891445 -0.012500002 0.023987377
-0.0057642637 -0.012500001 0.023892239
-0.0030413331 -0.012500002 0.024032006
-0.00070842193 -0.012500001 0.023284774
0.0019436572 -0.012500001 0.023678858
0.0085236859 -0.012500001 0.024373492
-0.012500001 -0.011173138 0.023511235
-0.011788897 -0.011887954 0.023733104
-0.007960354 -0.012499999 0.023603508
-0.0064834612 -0.0125 0.02385873
-0.0039831246 -0.012499999 0.023755968
-0.0014323419 -0.012500001 0.023834074
0.0012369392 -0.012500002 0.023604026
0.0037053374 -0.012500001 0.0235455
0.0063890708 -0.012500001 0.023422321
0.0089404155 -0.012500001 0.0237519
0.01150015 -0.012299623 0.023982309
0.0125 -0.011256956 0.023621321
-0.012500001 -0.0091065196 0.023173425
-0.0125 -0.0092432555 0.023908613
0.012499999 -0.0085314466 0.023736898
0.012500001 -0.0081853746 0.02358721
-0.012500001 -0.0062878192 0.023639783
0.012499999 -0.0064434498 0.023657596
0.012500002 -0.0058820792 0.023693768
-0.0125 -0.0039444347 0.023546843
-0.012500002 -0.0037999584 0.023408124
0.012499999 -0.0040240898 0.022797912
0.012500002 -0.0036702158 0.023839144
-0.012500001 -0.0021421812 0.024912331
-0.0125 -0.0023610599 0.024172978
0.012500002 -0.00090046949 0.024232509
-0.012500001 0.0014497344 0.023739817
-0.012500001 0.0011543479 0.023749016
0.0125 0.0011712101 0.024022907
-0.012500001 0.004882317 0.024535229
-0.012499999 0.0038444598 0.023760006
0.012500001 0.0038922552 0.024251675
-0.012500001 0.0060382942 0.024150312
-0.012499999 0.0053219362 0.023247585
0.012500001 0.0055788737 0.023460342
-0.0125 0.0087229917 0.023657113
-0.012500002 0.0089385863 0.023662666
0.012499999 0.00826013 0.023608238
0.012500002 0.0089171845 0.023673905
-0.012500001 0.010522045 0.024388414
-0.0125 0.011775167 0.023388103
-0.0082333488 0.012499999 0.023744112
-0.0043926309 0.012499999 0.023868883
-0.001404917 0.012499999 0.023037985
0.0010843046 0.012499999 0.023508672
0.0046484643 0.012499999 0.02380163
0.0087868311 0.012499999 0.023487531
0.011752178 0.012121668 0.023480352
0.012500002 0.010983546 0.023735099
-0.011400539 0.012500001 0.023835432
-0.0087226238 0.012500002 0.023831761
-0.0059745815 0.012500001 0.023512686
-0.0032864159 0.012500002 0.024006085
-0.0016488205 0.012500001 0.023661863
0.00087764487 0.012500002 0.023666739
0.0035706782 0.012500001 0.02363443
0.0063915248 0.012500002 0.023690986
0.0085653774 0.012500001 0.02347496
0.01136148 0.012500001 0.023721563
-0.0043731108 -0.0125 0.026325649
-0.00099225296 -0.012500001 0.026718091
0.0013020785 -0.0125 0.026428664
0.0045215506 -0.012500001 0.02591525
0.0066826516 -0.0125 0.026684023
0.0087385355 -0.0125 0.026470428
0.011210727 -0.012500001 0.0268194
-0.012500001 -0.011145363 0.025817174
-0.011889559 -0.012168036 0.026197851
-0.0086754868 -0.0125 0.026215099
-0.0060240887 -0.0125 0.02597844
-0.0037496993 -0.012500002 0.026530219
-0.0012339194 -0.012500001 0.026309565
0.0011470194 -0.012500001 0.026213622
0.0031760228 -0.0125 0.025959326
0.0065842383 -0.012499999 0.026519742
0.0085047828 -0.0125 0.026473636
0.011780097 -0.01230657 0.026547896
0.012500001 -0.011421633 0.026841873
-0.012500001 -0.0075416788 0.026408538
-0.012500001 -0.0096054124 0.026064435
0.012500001 -0.0088226823 0.025988838
-0.0125 -0.0061697457 0.026303703
-0.012499999 -0.0060289158 0.025472904
0.012499999 -0.0073061492 0.025322646
0.012500002 -0.0063563972 0.026459496
-0.012500001 -0.0037612501 0.026243905
-0.012499999 -0.0043453127 0.026445165
0.012499999 -0.0034836228 0.02602369
0.012500002 -0.0036892972 0.025993621
-0.012500001 -0.0015109994 0.026743755
-0.012500002 -0.0011511692 0.025799477
0.012499999 -0.0016445941 0.025093436
0.012500002 -0.0014042829 0.026207956
-0.012500001 0.00039298506 0.026480958
-0.012500002 0.0015062107 0.026299819
0.012499999 0.00026899716 0.026734078
0.012500001 0.0013743995 0.02647895
-0.0125 0.0044595962 0.026640816
-0.012499999 0.0038010275 0.026641976
0.012499999 0.0040897145 0.025814749
0.012500002 0.0034479899 0.025806742
-0.0125 0.0063786465 0.025993779
-0.0125 0.0064950949 0.025616977
0.012499999 0.0061861528 0.026145197
0.012500001 0.0061861216 0.025895167
-0.012500001 0.0083492044 0.02610141
-0.0125 0.009246611 0.026313329
0.012499999 0.0088702245 0.025678402
0.0125 0.0082749622 0.026068535
-0.012500001 0.012247314 0.02559481
-0.012284429 0.011636346 0.026258174
-0.0078176809 0.012499999 0.025759161
-0.0063567385 0.012499999 0.027181545
-0.0025430759 0.012499999 0.027233416
-0.0011537801 0.012499999 0.025918819
0.0037805489 0.012499999 0.026674349
0.0052536707 0.012499999 0.026688974
0.012500002 0.011377406 0.026278861
-0.011235187 0.012500001 0.026772384
-0.0087361289 0.012500002 0.026088728
-0.0056543415 0.012500002 0.026477005
-0.0038287151 0.012500001 0.026019568
-0.001024549 0.012500001 0.026864121
0.0009287569 0.012500001 0.026714042
0.0032267361 0.012500002 0.026435899
0.0058835545 0.012500002 0.026409158
0.0085221082 0.012500001 0.026348718
0.011555707 0.012500001 0.026153078
-0.0034004659 -0.012500001 0.028454902
-0.0018918912 -0.012500001 0.028968278
0.00078836991 -0.012500001 0.029352527
0.0040953467 -0.012500001 0.029018033
0.0059661907 -0.012500001 0.028928831
0.008418805 -0.012500002 0.028590605
0.010902159 -0.012500001 0.029616266
-0.011865482 -0.011771279 0.02906088
-0.0087200888 -0.012500001 0.028719129
-0.0065263524 -0.012500001 0.028953319
-0.0034586673 -0.0125 0.029001674
-0.0010368762 -0.012500001 0.028703537
0.00096318201 -0.012500001 0.029007733
0.0045658723 -0.0125 0.029315954
0.006000767 -0.012500001 0.029007355
0.0090175848 -0.0125 0.029209295
0.011878675 -0.011994765 0.028549571
0.012500002 -0.011002082 0.028363002
-0.012500001 -0.0086712232 0.02879026
0.012499999 -0.0097616464 0.028938126
0.012500002 -0.008868197 0.029094754
-0.012500001 -0.0067112823 0.028419461
-0.012499999 -0.006070849 0.029276773
0.012499999 -0.0052495338 0.029789537
0.012500002 -0.0064416244 0.02877496
-0.012500001 -0.0036826138 0.028503608
-0.0125 -0.0039820406 0.028614039
0.012499999 -0.0040757419 0.028452065
0.012500001 -0.0041693547 0.02915501
-0.0125 -0.0015179008 0.028874241
-0.012500001 -0.0016580157 0.028809676
0.012499999 -0.0012349193 0.028934585
0.012500002 -0.0014616576 0.029035419
-0.012500001 0.0013954141 0.027716909
-0.012500002 0.00099968538 0.029033983
0.012499999 0.00072588725 0.028779207
0.012500001 0.0014321732 0.028968351
-0.012500001 0.0036294307 0.029123707
-0.012500001 0.0034318885 0.028702401
0.012499999 0.003871266 0.028851425
0.012500002 0.0038571721 0.028556369
-0.012500001 0.0062796124 0.028754359
-0.0125 0.0069584334 0.028751878
0.012499999 0.0055498495 0.028440282
0.012500002 0.0066109872 0.028653946
-0.0125 0.0087867202 0.028689833
-0.012499998 0.0085683065 0.028811861
0.012499999 0.0089980625 0.027506577
0.0125 0.0090436013 0.028066166
-0.0125 0.01154237 0.028309211
-0.012425439 0.011310582 0.028986361
-0.0087053012 0.012499999 0.028691858
-0.0058977553 0.012499999 0.028773593
-0.0039584562 0.012499999 0.027882671
-0.0020116819 0.012499999 0.02908952
0.0030310231 0.012499999 0.028437668
0.0074140225 0.012499999 0.02871822
0.0077629671 0.012499999 0.028485451
0.012500001 0.011457705 0.029028544
-0.011627614 0.0125 0.02829008
-0.0083713038 0.0125 0.028406555
-0.0061305915 0.012500001 0.028644413
-0.0037521997 0.012500002 0.028709253
-0.0011277782 0.012500001 0.0286557
0.0017136777 0.012500002 0.028792586
0.0040327362 0.012500001 0.028721284
0.005793137 0.012500002 0.028669583
0.0083875647 0.012500002 0.028645286
0.011406563 0.012500001 0.028677123
-0.011500152 -0.012500001 0.03193564
-0.0086763203 -0.012500001 0.031866755
-0.0064977678 -0.012500001 0.031646565
-0.0038331512 -0.0125 0.031224057
-0.0017482905 -0.0125 0.031488914
0.0037108921 -0.012500001 0.03109096
0.0057692472 -0.0125 0.030845108
0.0084898379 -0.012500001 0.031846896
0.011849242 -0.0125 0.031269964
-0.011576574 -0.012254539 0.031508461
-0.0090686781 -0.012500001 0.030763952
-0.0060289996 -0.0125 0.030979339
-0.0034821953 -0.012499999 0.031144336
-0.0012137232 -0.012500001 0.031000134
0.0010992283 -0.012500001 0.031143228
0.0037987945 -0.0125 0.031222515
0.0061472985 -0.0125 0.030690454
0.0088288868 -0.012500001 0.030833924
0.012340986 -0.011708276 0.031154256
0.0125 -0.011441474 0.031558227
-0.012500001 -0.0089284796 0.031495959
0.012499999 -0.009255657 0.030271033
0.012500002 -0.0085693644 0.031617228
-0.012500001 -0.0065233549 0.031216808
-0.012500001 -0.0061626807 0.031420432
0.012499999 -0.0058732731 0.031358026
0.012500001 -0.0063129333 0.031396758
-0.012500001 -0.0044914251 0.03103717
-0.0125 -0.0040996699 0.031306773
0.012500001 -0.004017048 0.031200547
-0.012500001 -0.0016519683 0.030733282
-0.0125 -0.0012480079 0.030636584
0.012499999 -0.0018205256 0.030530915
0.012500002 -0.0014955617 0.03112464
-0.012500001 0.0011355014 0.031470474
-0.012499999 0.0015029778 0.031203773
0.012499999 0.0015741042 0.031617004
0.0125 0.0013916652 0.031122595
-0.012500001 0.0040463838 0.031658247
-0.012500001 0.0037414655 0.03092926
0.012499999 0.0038092588 0.031194698
0.012500001 0.0038208254 0.031562701
-0.012500001 0.0056960294 0.032049775
-0.012500002 0.0058809374 0.031019531
0.012499999 0.0059136869 0.031036623
0.0125 0.0060944292 0.031885061
-0.0125 0.0086930487 0.031405613
0.012500002 0.0086866524 0.03082736
-0.0125 0.011958025 0.031870347
-0.011764462 0.011841473 0.031575006
-0.0088364054 0.012499999 0.031072721
-0.0052004359 0.012499999 0.031498507
-0.0037422231 0.012499999 0.031255063
-0.0012677555 0.012499999 0.031864323
0.00080349576 0.012499999 0.03213764
0.0037345241 0.012499999 0.0308019
0.007143599 0.012499999 0.031087264
0.0081932303 0.012499999 0.031795051
0.011629855 0.012499999 0.031840187
0.012500002 0.01095154 0.031561833
-0.011087651 0.012500002 0.031575203
-0.0091248732 0.012500001 0.030923128
-0.0073660337 0.0125 0.032059208
-0.0035242816 0.012500002 0.031435408
-0.0012495598 0.012500001 0.031142253
0.0011966648 0.0125 0.030944042
0.0037905106 0.012500002 0.031139687
0.0060610562 0.012500002 0.031258944
0.0085556246 0.012500002 0.031315394
0.011255992 0.012500002 0.031323481
-0.011158162 -0.012500001 0.03394559
-0.0095023587 -0.012500001 0.03383413
-0.0064463178 -0.012500001 0.033134621
-0.0043240464 -0.012500001 0.03399229
-0.0010380974 -0.012500002 0.033055872
0.0011153799 -0.012500001 0.033382483
0.0044000912 -0.012500001 0.034125842
0.0066732559 -0.012500002 0.033627607
0.0092212204 -0.012500001 0.034098722
0.011193753 -0.012500002 0.033765681
-0.0125 -0.011210452 0.033530921
-0.01214997 -0.011688753 0.034185186
-0.0084706126 -0.0125 0.033713244
-0.0058756731 -0.012499999 0.033588052
-0.0035579831 -0.0125 0.033870246
-0.0018113634 -0.0125 0.0341448
0.0012483094 -0.0125 0.033483405
0.0033057844 -0.012499999 0.033157971
0.0062781256 -0.012499999 0.033803411
0.0091840671 -0.012499998 0.033495914
0.011384105 -0.012147091 0.034173939
0.012500002 -0.011411461 0.034075987
-0.012499999 -0.00923396 0.034263439
0.012500002 -0.0087531181 0.033816095
-0.012500001 -0.0059180302 0.033262193
-0.012500001 -0.0062556579 0.033651397
0.0125 -0.006358657 0.033489693
-0.012500001 -0.0040255929 0.033806082
-0.0125 -0.0034990145 0.033942409
0.012499999 -0.0039050342 0.03372208
0.012500001 -0.0041013234 0.034016982
-0.012500001 -0.0011948022 0.033231754
-0.012500001 -0.0012028975 0.033830889
0.012499999 -0.00073670805 0.034970913
0.012500002 -0.0011328716 0.033459928
-0.012500001 0.0015172774 0.03383036
-0.0125 0.001592879 0.034027312
0.012499999 0.0013860879 0.03378839
0.012500002 0.0012301991 0.033725191
-0.012500002 0.0040314253 0.033539221
-0.012499999 0.0033455964 0.033574294
0.012499999 0.0041035223 0.033670448
0.012500001 0.0032991341 0.033571847
-0.0125 0.0061093238 0.033280071
-0.012499999 0.0064523504 0.033504501
0.012500002 0.006370232 0.034070473
-0.0125 0.0081025818 0.033642929
-0.0125 0.0083177416 0.034570228
0.012500002 0.0086724861 0.033548579
-0.012500001 0.010610896 0.032955304
-0.012380724 0.011683677 0.033958528
-0.0088290982 0.012499999 0.033815648
-0.0066835079 0.012499999 0.033843093
-0.0032837328 0.012499999 0.033344891
-0.001291364 0.012499999 0.034767427
0.0017881648 0.012499999 0.033878006
0.0031491793 0.012499999 0.033933457
0.0065420326 0.012499999 0.033318348
0.0082157152 0.012499999 0.032631215
0.010547729 0.012499999 0.033643987
0.012500001 0.011600329 0.034136251
-0.011401097 0.012500002 0.033691503
-0.0087530706 0.012500002 0.033583831
-0.0066028712 0.012500001 0.033448499
-0.0036213621 0.012500001 0.033707686
-0.0013356796 0.012500001 0.033902112
0.0014933924 0.012500002 0.033523064
0.0035139364 0.012500001 0.033772483
0.0063832579 0.012500001 0.033677835
0.0086901924 0.012500001 0.033731591
0.011683154 0.0125 0.033624537
-0.0112269 -0.012500001 0.036722247
-0.0091552623 -0.012500001 0.03598278
-0.0060001905 -0.012500001 0.036913436
-0.0033359914 -0.012500001 0.036275242
-0.002136813 -0.012500001 0.036935378
0.00096082687 -0.012500001 0.035953749
0.003772588 -0.012500001 0.036503643
0.0059398622 -0.0125 0.035618182
0.0089900913 -0.0125 0.03602327
0.010809097 -0.012500001 0.036983497
-0.012500001 -0.011019604 0.035210814
-0.011781368 -0.011889686 0.036248039
-0.0088079423 -0.012500001 0.035833083
-0.006143555 -0.0125 0.036357213
-0.0036890872 -0.012500001 0.036346965
-0.0013963528 -0.012499999 0.03611552
0.0010675143 -0.0125 0.03607823
0.0039073601 -0.012500001 0.035738684
0.0055776564 -0.0125 0.035968184
0.0085969307 -0.012500002 0.03588694
0.011597721 -0.012285122 0.036244001
0.012500001 -0.011041903 0.036088999
-0.012500001 -0.0097232535 0.035889886
-0.0125 -0.0093867797 0.036756344
0.012499999 -0.0095862281 0.037151277
0.012500002 -0.0085387612 0.036366772
-0.012500002 -0.0065996232 0.036166705
-0.012500001 -0.0060898839 0.036057964
0.012499999 -0.0063633542 0.037224222
0.012500002 -0.0070407693 0.035885897
-0.012500001 -0.0041580168 0.036353849
-0.012499999 -0.0035507344 0.036212943
0.012500002 -0.0038780873 0.035930343
-0.012500001 -0.0014624479 0.036014985
-0.012500001 -0.0013573881 0.036379702
0.012499999 -0.00099618034 0.036517404
0.012500002 -0.00098702672 0.036153227
-0.012500001 0.00088102929 0.035971589
-0.012500002 0.00063519308 0.035945907
0.012499999 0.00074859662 0.036646165
0.0125 0.0011381102 0.036050964
-0.012500001 0.0039396505 0.035911489
-0.0125 0.0034321893 0.036192607
0.0125 0.003321036 0.036901563
-0.012500001 0.0064007835 0.035902038
-0.012500001 0.0065450333 0.03650644
0.012499999 0.0057204682 0.037363011
0.012500001 0.0063568577 0.035963934
-0.012500001 0.0083565842 0.036157031
-0.012500001 0.0091000861 0.036601074
0.012499999 0.0078771897 0.037260205
0.012500001 0.0087053152 0.036228888
-0.012500001 0.011448572 0.036192175
-0.009044216 0.012499999 0.03568726
-0.0042178519 0.012499999 0.035164874
-0.0013629429 0.012499999 0.036308181
0.00073770364 0.012499999 0.036849145
0.0033419027 0.012499999 0.035996579
0.0062163179 0.012499999 0.036229566
0.012500002 0.011421689 0.036097754
-0.011195548 0.0125 0.036525641
-0.008878421 0.012500001 0.036271065
-0.0060354103 0.012500002 0.036539026
-0.003507128 0.0125 0.036586352
-0.0012157046 0.012500001 0.03586119
0.0011914424 0.012500001 0.035664529
0.0036885368 0.012500002 0.03604804
0.0060722111 0.012500002 0.035605073
0.0086491881 0.012500002 0.03600486
0.011411476 0.012500001 0.036138434
-0.011915732 -0.012500001 0.03837515
-0.008760944 -0.012500001 0.039450113
-0.0063573848 -0.012500002 0.038205013
-0.0043467111 -0.0125 0.039334342
-0.0006269617 -0.012500001 0.039211072
0.0012493368 -0.012500002 0.03908512
0.0044304235 -0.012500001 0.038631786
0.0060289116 -0.0125 0.038877923
0.0098945666 -0.012500001 0.038207538
-0.0125 -0.011272029 0.038921572
-0.01184344 -0.011882552 0.03842289
-0.0086804843 -0.012500001 0.038374968
-0.0060031596 -0.0125 0.03852082
-0.0031666469 -0.0125 0.039089449
-0.0016294725 -0.012500002 0.038635012
0.0012446084 -0.012499999 0.038638141
0.0036198648 -0.012500002 0.038560115
0.0061712861 -0.0125 0.038853217
0.0087696183 -0.012499999 0.038337979
0.011448253 -0.012337365 0.03818991
0.012500002 -0.011386311 0.03875998
-0.012500001 -0.0085985763 0.039063491
-0.012500001 -0.0087181069 0.03883934
0.012500002 -0.0085766604 0.03878925
-0.012500002 -0.0064649358 0.038490441
-0.0125 -0.0063772337 0.039039101
0.012499999 -0.0069765802 0.037722979
0.012500001 -0.0065278681 0.038541228
-0.012500001 -0.0036898856 0.038400441
-0.012499999 -0.0037197792 0.038759142
0.012499999 -0.0033914975 0.038405605
0.012500002 -0.0038649491 0.038857497
-0.0125 -0.0018779413 0.039426986
-0.0125 -0.0013181699 0.03853007
0.012499999 -4.0188897e-05 0.038853247
0.0125 -0.0007374867 0.038565684
-0.012500001 0.0020501921 0.038723946
-0.012500001 0.0013764412 0.038481668
0.012500002 0.0014602396 0.038767513
-0.0125 0.0038912937 0.03894018
-0.012499999 0.0041855248 0.039152928
0.012499999 0.0039337492 0.03860601
0.012500001 0.0035417154 0.038745653
-0.012500001 0.0059385607 0.038969908
-0.012500002 0.006327658 0.03853092
0.012500002 0.0063670799 0.038265772
-0.012500001 0.0079396889 0.038131129
-0.0125 0.008898438 0.038362179
0.012500002 0.0085090883 0.038806386
-0.0125 0.011584759 0.039095461
-0.0125 0.011207696 0.038417008
-0.0084092785 0.012499999 0.03826097
-0.0042849174 0.012499999 0.039102457
-0.0010970926 0.012499999 0.038838506
0.012500002 0.010898817 0.03854958
-0.011365475 0.012500001 0.038767673
-0.0085101826 0.012500002 0.0388944
-0.0058302539 0.012500002 0.039200779
-0.0036713087 0.012500001 0.038714342
-0.0008648049 0.0125 0.038632091
0.0011961828 0.012500001 0.03865369
0.0040088659 0.0125 0.038860984
0.0063203895 0.012500001 0.038481303
0.0089562284 0.012500001 0.03879058
0.011361313 0.012500001 0.039075729
-0.0088671949 -0.012500001 0.041099709
-0.0066587953 -0.012500001 0.041824136
-0.003909057 -0.012500001 0.040002357
-0.0013579462 -0.012500001 0.040828485
0.001823135 -0.012500001 0.042020157
0.0043776087 -0.012500001 0.040448606
0.0063320706 -0.012500001 0.040925153
0.0092401048 -0.012500001 0.041104324
0.011610674 -0.012500001 0.041463621
-0.012500001 -0.012392433 0.041574601
-0.011828019 -0.01167649 0.04148186
-0.0088652987 -0.012500001 0.041340448
-0.0064620683 -0.0125 0.041404154
-0.0037220467 -0.012500002 0.041026868
-0.0015438516 -0.012499999 0.041252043
0.00089594163 -0.012499998 0.041142683
0.0034860461 -0.0125 0.04021138
0.0062261787 -0.012500001 0.041765556
0.0091240965 -0.0125 0.041641247
0.011309813 -0.0125 0.040867984
0.012500002 -0.01065681 0.041898686
-0.012500001 -0.007987014 0.041427366
-0.012500001 -0.0095106345 0.041200981
0.012499999 -0.0087622004 0.041539535
0.012500001 -0.0090770787 0.041228455
-0.012500001 -0.005961048 0.041125126
-0.0125 -0.0067536654 0.041227847
0.012499999 -0.005519304 0.04011748
0.0125 -0.0068402607 0.040742032
-0.012500001 -0.004135509 0.041243237
-0.012500001 -0.003643305 0.04121805
0.012499999 -0.0039874031 0.041305125
0.012500002 -0.00392251 0.041342851
-0.012500001 -0.0013176646 0.041332297
-0.012499999 -0.0015854535 0.04101513
0.012499999 -0.0010958803 0.041501619
0.0125 -0.0011927766 0.041310668
-0.012499998 0.0013090869 0.040987611
0.012499999 0.0016558613 0.040965483
0.012500002 0.0016842296 0.040767893
-0.012500001 0.0036591138 0.040880311
-0.0125 0.003797583 0.041218847
0.012499999 0.0036097888 0.041328613
0.012500001 0.0038250803 0.041483928
-0.012500001 0.0061662197 0.041335955
-0.0125 0.0064018131 0.040679544
0.012500002 0.0061983801 0.04081424
-0.012500001 0.009780135 0.040318381
-0.0125 0.0089540211 0.041107073
0.012500001 0.0089879343 0.041374855
-0.0125 0.01072593 0.041971292
-0.0098392442 0.012499999 0.040079232
-0.0040829158 0.012499999 0.04201182
-0.00070378574 0.012499999 0.041476138
0.00098761695 0.012499999 0.040232129
0.0053931116 0.012499999 0.040807962
0.012500001 0.011400091 0.041097973
-0.011356754 0.012500001 0.041194908
-0.0085506691 0.012500001 0.041502938
-0.0062113856 0.012500002 0.041379739
-0.0036254236 0.012500002 0.041637857
-0.0011321278 0.012500002 0.041142303
0.0015942674 0.0125 0.040745564
0.003431042 0.012500002 0.041402884
0.0060348655 0.012500001 0.040974524
0.0085071828 0.012500001 0.041764408
0.011324595 0.012500002 0.041472148
-0.0078570405 -0.012500001 0.044193298
-0.0058704624 -0.012500001 0.043640751
-0.00091871747 -0.012500001 0.043684356
0.0011364893 -0.012500001 0.042780776
0.0042272308 -0.0125 0.044587672
0.0069693108 -0.012500001 0.043795466
0.0097591002 -0.012500001 0.044149674
0.010806824 -0.012500001 0.04459339
-0.01193237 -0.011883155 0.043856248
-0.0088051036 -0.0125 0.043355178
-0.0060656127 -0.0125 0.044106547
-0.0035009584 -0.012500001 0.043398883
-0.0014252947 -0.012500002 0.044194765
0.0015769904 -0.0125 0.043504372
0.0033780802 -0.012500001 0.043288063
0.0063128155 -0.012500001 0.043802246
0.0084389579 -0.0125 0.043466564
0.011258692 -0.0125 0.043815993
0.012500001 -0.010921109 0.04399858
-0.012500001 -0.007919617 0.044448297
-0.012500001 -0.0092153801 0.043806516
0.012499999 -0.0094531272 0.044843767
0.012500001 -0.0085448548 0.043624967
-0.012500002 -0.0068924059 0.043916542
-0.0125 -0.006565358 0.043750048
0.012499999 -0.0052989116 0.044039022
0.012500002 -0.0066685989 0.043770794
-0.0125 -0.0041585607 0.04395787
-0.012499999 -0.0034343516 0.043414723
0.012499999 -0.0041153496 0.043680131
0.012500002 -0.0038496824 0.044114452
-0.0125 -0.00050737819 0.044071358
-0.012500002 -0.0010960314 0.043889735
0.012499999 -0.0018614833 0.042596631
0.012500001 -0.0010386732 0.04403628
-0.012500001 0.00097101741 0.043305833
-0.012500001 0.0012258571 0.044227183
0.012500001 0.0017316131 0.043971878
-0.012500001 0.0035264888 0.043328937
-0.012500001 0.0040818914 0.043767266
0.012499999 0.0039272173 0.04483543
0.012500001 0.0039410689 0.043580532
-0.012500001 0.0064756693 0.043923646
-0.012499999 0.0065198694 0.043903749
0.012500002 0.0063447035 0.043644346
-0.012500002 0.0086062243 0.043741971
0.012500002 0.0086017707 0.043578256
-0.012500001 0.011247896 0.042759158
-0.012414404 0.011579072 0.043833952
-0.0087339561 0.012499999 0.043319348
-0.0067743165 0.012499999 0.043609444
-0.0021056272 0.012499999 0.04289243
0.00076219969 0.012499999 0.04416272
0.012500001 0.011339565 0.043785948
-0.011188623 0.012500002 0.043967724
-0.0089342175 0.0125 0.044064146
-0.0063352012 0.012500002 0.043388478
-0.0034674157 0.012500002 0.044028938
-0.0015680918 0.012500002 0.043496855
0.0016320394 0.0125 0.043372761
0.0033128548 0.012500001 0.043594584
0.0060987738 0.0125 0.043755122
0.0085312221 0.012500001 0.043708865
0.01112841 0.012500001 0.043691624
-0.0063141463 -0.012500001 0.046192236
-0.0041845427 -0.012500001 0.04583817
-0.00073249993 -0.012500001 0.045334492
0.0040060109 -0.012500001 0.046358868
0.0056509143 -0.012500001 0.046010032
0.0082318531 -0.0125 0.045740474
0.011579633 -0.012500001 0.045134272
-0.011964807 -0.011834138 0.046119351
-0.0087522799 -0.0125 0.045992006
-0.0065373536 -0.012500002 0.046323374
-0.003843222 -0.012500001 0.045842562
-0.0014966819 -0.012500002 0.046650577
0.0010493197 -0.0125 0.045460783
0.0035854578 -0.0125 0.046150964
0.0058217649 -0.0125 0.046209034
0.0084548509 -0.012500001 0.046164043
0.01125064 -0.012417708 0.046296585
0.0125 -0.011642821 0.04668206
-0.0125 -0.0078940662 0.045748189
-0.0125 -0.0090420619 0.046022605
0.0125 -0.008926901 0.046518803
-0.0125 -0.0063169855 0.046648461
-0.0125 -0.0066886861 0.045592166
0.012499999 -0.0050150338 0.04626907
0.012500001 -0.0058554644 0.045591611
-0.012500001 -0.0036101257 0.046001337
-0.012500001 -0.0036916125 0.046041474
0.012500001 -0.0037106168 0.046390377
-0.012500002 -0.0017378293 0.04632267
0.012499999 -0.00078268582 0.046167821
0.012500001 -0.001458524 0.045918472
-0.0125 0.0013181773 0.04668029
-0.012499999 0.0011913293 0.046262041
0.012500002 0.0016509072 0.046267506
-0.012500001 0.0035394519 0.047364935
-0.012499999 0.0040845941 0.046025895
0.012499999 0.0045915633 0.045366365
0.012500001 0.0037165298 0.045769505
-0.0125 0.0062063676 0.045973781
-0.012500001 0.0062649441 0.046259854
0.012500002 0.0061298143 0.046434283
-0.012500001 0.0088382885 0.046470467
-0.0125 0.0089314748 0.046508886
0.012500002 0.0086508254 0.046423078
-0.012500001 0.011483407 0.046812467
-0.012500001 0.011631905 0.045830302
-0.0083729662 0.012499999 0.046602398
-0.0026640298 0.012499999 0.047005411
-0.002216435 0.012499999 0.046315644
0.0043569482 0.012499999 0.045241989
0.012500002 0.010966743 0.046408564
-0.011075404 0.0125 0.046537574
-0.0089201275 0.012500001 0.045986075
-0.0065435329 0.0125 0.04626153
-0.0042202482 0.012500002 0.04621527
-0.0012370942 0.012500001 0.046426747
0.0019766863 0.012500001 0.046576384
0.0037548754 0.012500002 0.046131168
0.0064873253 0.012500001 0.046754234
0.0085693002 0.012500001 0.046254303
0.011305278 0.012500001 0.046304263
-0.0081893941 -0.012500001 0.048725486
-0.0065098978 -0.012500001 0.048883557
-0.0038999687 -0.012500001 0.0481584
0.004087633 -0.0125 0.04872543
0.0064272438 -0.012500001 0.048522569
0.011859628 -0.012500001 0.049071901
-0.01148511 -0.012132327 0.048858393
-0.0085426867 -0.0125 0.048400324
-0.0064923968 -0.012500001 0.049123272
-0.0035036181 -0.012110263 0.049482066
-0.0014426325 -0.012500002 0.048953332
0.00064384349 -0.012500001 0.048716161
0.0040292586 -0.012263594 0.04893082
0.0061722486 -0.012329138 0.04902995
0.0090362336 -0.012300401 0.04904002
0.011306205 -0.012025386 0.049289837
0.012500002 -0.010857201 0.048893634
-0.012500001 -0.0077291732 0.047615364
-0.012500001 -0.0090560419 0.048718315
-0.0034487783 -0.0083499271 0.049999997
-0.0013606525 -0.0076710191 0.049999997
0.0017794075 -0.0084548779 0.049999997
0.005967326 -0.0085278302 0.049999997
0.0081133479 -0.0083626751 0.049999997
0.012499999 -0.0090701599 0.049275689
0.012500002 -0.0085071335 0.048888337
-0.012500001 -0.005161122 0.048955068
-0.012500001 -0.005982439 0.048475143
-0.0054707509 -0.0061056977 0.049999997
-1.3676938e-05 -0.0055138329 0.049999997
0.0017098221 -0.0060020126 0.049999997
0.0044409311 -0.0050618998 0.049999997
0.0072071697 -0.0059892624 0.049999997
0.008513812 -0.0060060509 0.049999997
0.012500002 -0.0063126963 0.048894245
-0.012500001 -0.003806324 0.048949532
-0.012092811 -0.003891588 0.049274016
-0.0050159115 -0.0025405823 0.049999997
-0.0024487493 -0.0047489614 0.049999997
0.0035406097 -0.0033432331 0.049999997
0.0063832323 -0.0048211212 0.049999997
0.011935973 -0.0034549013 0.049320552
0.012500002 -0.0037462935 0.048275121
-0.0125 -0.0020041079 0.049482509
-0.0043964996 -0.0016126325 0.049999997
0.00051844935 -0.0014348975 0.049999997
0.0047487374 -0.001539604 0.049999997
0.008578117 -0.00089472957 0.049999997
0.011882747 -0.001391414 0.049441438
0.0125 -0.0010471343 0.049035225
-0.012500001 0.001165658 0.048296295
-0.012466338 0.0018702669 0.049053114
-0.0095984433 0.00044372119 0.049999997
-0.0068100933 0.00084738876 0.049999997
-0.0034422267 0.0013051771 0.049999997
0.0022479142 0.0022548188 0.049999997
0.0036986705 0.0014523551 0.049999997
0.012500001 0.0011464203 0.048785664
-0.012500001 0.0034989067 0.048818614
-0.012500001 0.0040350338 0.048326641
-0.0099470336 0.0037536062 0.049999997
-0.0019168434 0.004012838 0.049999997
0.0039792247 0.0031411282 0.049999997
0.012500001 0.0035221099 0.048785068
-0.012500001 0.006972359 0.048360791
-0.012311592 0.0063401754 0.048768159
-0.008229591 0.007219261 0.049999997
-0.0034259781 0.0060698162 0.049999997
-0.0011475272 0.0062569967 0.049999997
0.0035804971 0.0054754126 0.049999997
0.0062092105 0.0061292187 0.049999997
0.012500001 0.0060722753 0.048726033
-0.012500001 0.0077634016 0.048717402
-0.012170461 0.0089548677 0.049370591
-0.0077950093 0.008925057 0.049999997
-0.0058518737 0.0086843232 0.049999997
-0.0045256354 0.0076503595 0.049999997
-0.0017933059 0.0090477867 0.049999997
0.012500002 0.0085983817 0.048928224
-0.012500001 0.010157637 0.047805596
-0.011969622 0.011527419 0.048984189
-0.0096044624 0.012177031 0.049710065
-0.0062105386 0.011413232 0.048996665
-0.0036644754 0.01186725 0.049501114
-0.00081911543 0.010815606 0.049999997
0.0042387829 0.012499999 0.049182177
0.0125 0.011713366 0.048609059
-0.010688397 0.012500001 0.048756983
-0.009010992 0.0125 0.048736658
-0.0065070167 0.012500001 0.048568774
-0.0034920722 0.012500002 0.049249679
-0.0013097199 0.012500001 0.048636537
0.0013457191 0.012500001 0.048673868
0.0037686741 0.012500001 0.04868459
0.0060702502 0.012500002 0.048229035
0.0087399166 0.012500001 0.048714362
0.011186483 0.012500002 0.048538134
-0.011379951 -0.011220641 0.050000001
-0.0087221544 -0.011188345 0.050000004
-0.0063018166 -0.010940591 0.050000004
-0.00323306 -0.011339947 0.050000001
-0.0010532478 -0.011383178 0.050000004
0.0012776144 -0.011015763 0.050000008
0.0035070737 -0.011333643 0.050000001
0.0064351447 -0.011781181 0.050000004
0.0084315874 -0.011542207 0.050000004
0.011312598 -0.011665265 0.050000008
-0.011807049 -0.0082280366 0.050000008
-0.0087800473 -0.0088000074 0.050000008
-0.0064963778 -0.0086050984 0.050000008
-0.0034434777 -0.0094561242 0.050000004
-0.0011579888 -0.0088946167 0.050000008
0.0010046551 -0.0088814553 0.050000004
0.0035228499 -0.0091298018 0.050000008
0.0064246473 -0.008595963 0.050000008
0.008569492 -0.0086849136 0.050000004
0.011550813 -0.0086104777 0.050000001
-0.011531232 -0.0063755256 0.050000004
-0.0085328789 -0.00672939 0.050000004
-0.0057401829 -0.0062592602 0.050000008
-0.0036475062 -0.0064644883 0.050000008
-0.0012178231 -0.0062556742 0.050000008
0.0011395107 -0.0060372488 0.050000008
0.0038808712 -0.0065285666 0.050000004
0.0059399763 -0.0060521741 0.050000004
0.0088895783 -0.0058120731 0.050000001
0.011015061 -0.0063513396 0.050000008
-0.011294624 -0.0027503078 0.050000001
-0.0086299684 -0.0032905154 0.050000004
-0.0067961267 -0.0036551312 0.050000001
-0.0038204496 -0.0042583258 0.050000001
-0.0014013536 -0.004651939 0.050000001
0.0011412521 -0.0040414804 0.050000001
0.0039378437 -0.0039749113 0.050000008
0.0063966908 -0.0036292628 0.050000004
0.0089996243 -0.0033617399 0.050000001
0.011151846 -0.003939773 0.050000008
-0.011769461 -0.0012640072 0.050000008
-0.0087967832 -0.0015330478 0.050000004
-0.0062137255 -0.00082558725 0.050000004
-0.0036813042 -0.0013631256 0.050000008
-0.0012880206 -0.0012246283 0.050000004
0.00095420115 -0.0014558333 0.050000008
0.0038600664 -0.000966992 0.050000004
0.0066536036 -0.0011815596 0.050000008
0.0093769962 -0.0010410731 0.050000001
0.010825827 -0.0011470355 0.050000008
-0.011055123 0.0014903161 0.050000004
-0.0084466049 0.00088655704 0.050000004
-0.0064512081 0.001265133 0.050000001
-0.0042228657 0.00095740246 0.050000004
-0.0013954007 0.00053089426 0.050000001
0.0014195067 0.0013638176 0.050000008
0.0040595927 0.001770727 0.050000008
0.006694952 0.001455258 0.050000008
0.0084184092 0.0014066829 0.050000004
0.011255037 0.0013501669 0.050000001
-0.011662437 0.0032999632 0.050000001
-0.0090232212 0.0039605591 0.050000004
-0.0064684572 0.0039560269 0.050000004
-0.0035221435 0.003168755 0.050000004
-0.0010919633 0.0038123876 0.050000004
