# .PCD v0.7 - Point Cloud Data file format
VERSION 0.7
FIELDS x y z
SIZE 4 4 4
TYPE F F F
COUNT 1 1 1
WIDTH 312
HEIGHT 1
VIEWPOINT 0 0 0 1 0 0 0
POINTS 312
DATA ascii
-0.013332092 -0.0054446268 0.0012099679
-0.011219327 -0.005429233 0.000926685
-0.0089306049 -0.005495857 0.0012682935
-0.0061112582 -0.0054325149 0.00090790773
-0.0036877047 -0.0054719914 0.0013244976
-0.0014202438 -0.0054892944 0.0013000591
0.0010943945 -0.0054527526 0.00096114515
0.0036573312 -0.0054442012 0.00091987103
0.0062737255 -0.0054821414 0.0010829042
0.0086865369 -0.0054700668 0.0010782278
0.011347918 -0.0054102982 0.00077404664
0.013494655 -0.0053993477 0.0009474117
-0.013828351 -0.0038761385 0.00087797904
-0.011096313 -0.0036971599 0
-0.0087926732 -0.003845226 0
-0.0063961754 -0.0038673466 0
-0.0036069781 -0.0036672668 0
-0.0012728168 -0.0035633692 0
0.0014010464 -0.0035072584 0
0.0037490483 -0.0036784576 0
0.0063306107 -0.0035710589 0
0.0087618511 -0.0039717653 0
0.011352672 -0.0036970032 0
0.01381655 -0.0037393845 0.00073239143
-0.013838446 -0.0012297106 0.00084094395
-0.011172454 -0.0013354361 0
-0.0087851547 -0.0011920647 0
-0.006137792 -0.0013107288 0
-0.0038232624 -0.0011851852 0
-0.0013192703 -0.001348883 0
0.0014592088 -0.0010953041 0
0.0037378238 -0.0010412845 0
0.0060681584 -0.0011045438 0
0.0086396374 -0.0013256362 0
0.011424872 -0.0011088896 0
0.01380239 -0.0012638997 0.00054067111
-0.013852718 0.0012982767 0.00064220198
-0.011199964 0.0012906604 0
-0.0089727649 0.0015730469 0
-0.0060348012 0.0014186864 0
-0.0037375325 0.0012537122 0
-0.0013391423 0.0013546958 0
0.0012810965 0.0013666716 0
0.0037255632 0.0013394646 0
0.0061711739 0.0011990753 0
0.0088449977 0.0012406422 0
0.011308377 0.0013014222 0
0.013797553 0.0011921979 0.00062840397
-0.013843074 0.0038526671 0.00067374296
-0.01104368 0.0039332225 0
-0.0085708126 0.0038024755 0
-0.006346609 0.003657114 0
-0.0036999192 0.0035240657 0
-0.0015058189 0.0035841973 0
0.0012119473 0.0039433693 0
0.003753827 0.0037123312 0
0.0061662067 0.0036011287 0
0.0085714124 0.0039243517 0
0.011473872 0.0037320561 0
0.013913264 0.003686727 0.00073534297
-0.013483581 0.0054071364 0.00095662434
-0.011198032 0.0054605864 0.0010662013
-0.0086239092 0.0054661352 0.00088724151
-0.0061673592 0.005464592 0.0010054046
-0.0036705716 0.0054599638 0.0011441316
-0.0011276338 0.0054582376 0.0011520426
0.0013663175 0.0054545468 0.00087280298
0.0039321766 0.0054444894 0.0010178894
0.0062927911 0.005441715 0.0011928428
0.008730243 0.005450787 0.0011536482
0.011283174 0.0054658893 0.001090282
0.013510146 0.005386766 0.0013327356
-0.012690757 -0.0053348779 0.0033212348
-0.011342698 -0.0054690037 0.0037915569
-0.0083645778 -0.0055000028 0.0036598574
-0.0061393231 -0.0055000023 0.0036312779
-0.0038786978 -0.0055000028 0.0036816427
-0.0013289062 -0.0055000023 0.0035757413
0.0012272326 -0.0055000023 0.0039255493
0.0037746073 -0.0055000023 0.0039689518
0.0061151558 -0.0055000014 0.0036308218
0.0087278252 -0.0055000023 0.0036530984
0.011324584 -0.0054728566 0.0036492425
0.012820032 -0.0052925199 0.0031958506
-0.012832342 -0.0035930795 0.0032736855
-0.012150186 -0.0035897065 0.0044552148
0.012213059 -0.0037998483 0.0043463176
0.012870847 -0.0036748219 0.0032069916
-0.012879791 -0.0012980207 0.0031914988
-0.012094331 -0.0010492004 0.0045519597
0.012180254 -0.0010583353 0.0044031367
0.012934215 -0.0011840918 0.0030972366
-0.012936662 0.0011960417 0.0030929947
-0.012120915 0.0014736484 0.0045059165
0.012134117 0.0012238575 0.0044830469
0.012876857 0.001028358 0.0031965815
-0.012882186 0.0036715192 0.0031873516
-0.01224917 0.0038150942 0.0042837714
0.012250355 0.0038160046 0.0042817187
0.012961393 0.0037870163 0.0030501615
-0.012710446 0.0053952108 0.0033169333
-0.011189732 0.0054607452 0.0039928243
-0.008875194 0.0055000023 0.0039313091
-0.0064589055 0.0055000018 0.0037356052
-0.0038248075 0.0055000023 0.0037035979
-0.0011744774 0.0055000028 0.0039492431
0.0012225527 0.0055000028 0.0037278889
0.0038762726 0.0055000023 0.0037968061
0.0061888695 0.0055000023 0.003706852
0.0088679297 0.0055000023 0.0037403367
0.011209992 0.0054880395 0.003989364
0.012903912 0.0052823583 0.003058352
-0.010777234 -0.0053978423 0.0061430004
-0.0087851891 -0.0055000028 0.0062240311
-0.006118801 -0.0055000023 0.006124944
-0.003736455 -0.0055000023 0.0063535594
-0.0010444777 -0.0055000023 0.0063204099
0.0013506158 -0.0055000023 0.0061680926
0.0038832566 -0.0055000023 0.0063204644
0.0062418277 -0.0055000028 0.0063295527
0.008750719 -0.0055000023 0.0064028776
0.010662478 -0.0053902213 0.0064841048
-0.011120405 -0.0038093056 0.0062388526
0.011118815 -0.0038060872 0.0062416079
-0.01109956 -0.0011320574 0.0062749558
0.011163337 -0.0012864472 0.0061644921
-0.011132504 0.0011719654 0.0062178969
0.010962911 0.0013604218 0.0065116449
-0.011079743 0.0038683666 0.0063092825
0.0110834 0.0037655546 0.0063029509
-0.01092519 0.0053828377 0.0060070795
-0.0087372046 0.0055000023 0.00598566
-0.0060986206 0.0055000023 0.0064979149
-0.0039272197 0.0055000028 0.0064492775
-0.00124446 0.0055000023 0.0060990308
0.0013837805 0.0055000028 0.006417938
0.0038080965 0.0055000023 0.0061199907
0.0064232936 0.0055000023 0.0061646239
0.0085873073 0.0055000018 0.0063693151
0.010805301 0.0053894296 0.0061677946
-0.010132768 -0.0054571209 0.0077708261
-0.0086121568 -0.005450679 0.00865205
-0.0064339065 -0.0055000028 0.0087579675
-0.0038136127 -0.0055000023 0.0088522462
-0.0012279507 -0.0055000023 0.008729496
0.0011140768 -0.0055000023 0.0087549463
0.0037852272 -0.0055000023 0.0089445598
0.0063011139 -0.0055000018 0.008724357
0.0087517509 -0.0054658633 0.0087068845
0.010076614 -0.0053592692 0.0080395229
-0.010208583 -0.0037877245 0.0078181736
-0.0094449725 -0.0038872284 0.0091407951
0.009543092 -0.0036918155 0.0089708436
0.010237812 -0.0036129355 0.0077675511
-0.010240743 -0.0010768959 0.0077624745
-0.0094141252 -0.001438531 0.0091942241
0.009464886 -0.001359891 0.0091063017
0.010186845 -0.0014037102 0.0078558279
-0.010150251 0.00076126604 0.0079192137
-0.0094367582 0.001444804 0.0091550192
0.0094071953 0.0011450886 0.0092062261
0.010215147 0.0012101934 0.0078068078
-0.010143712 0.0037806288 0.0079305386
-0.0095496261 0.0038176128 0.0089595271
0.0095338169 0.0037704383 0.0089869108
0.010179397 0.00387986 0.0078687305
-0.010186156 0.0053763688 0.0076157465
-0.0087178871 0.0054371483 0.0088913823
-0.0063878535 0.0055000028 0.0087138545
-0.0037906552 0.0055000023 0.0086335372
-0.0012912006 0.0055000023 0.0083829518
0.0013726337 0.0055000018 0.0087430822
0.0035345801 0.0055000028 0.0087697376
0.0062099942 0.0055000023 0.0089420276
0.0086312471 0.0054240106 0.0087740263
0.010143341 0.0051850625 0.0079311794
-0.0081070988 -0.0054377341 0.010791628
-0.0062012332 -0.0055000023 0.01118092
-0.0040111975 -0.0055000028 0.011097122
-0.0014469716 -0.0055000014 0.011072517
0.0013439505 -0.0055000023 0.011190152
0.0037362464 -0.0055000028 0.011176801
0.006251873 -0.0055000023 0.011060032
0.0079033785 -0.0054114508 0.011265038
-0.0082147019 -0.0034787948 0.01127169
0.0082416777 -0.0037312119 0.011224963
-0.008242894 -0.0013094073 0.011222861
0.0083224196 -0.001180056 0.011085114
-0.0081996014 0.0012480519 0.011297842
0.008350404 0.0012088425 0.011036643
-0.0081585217 0.0039051459 0.011368996
0.0082397405 0.0038297584 0.011228322
-0.0081890346 0.0053769457 0.010790852
-0.0064274231 0.0055000028 0.011288603
-0.0037663302 0.0055000023 0.01124952
-0.0013124078 0.0055000023 0.011129695
0.0014839453 0.0055000023 0.011210782
0.0037002701 0.0055000023 0.01129985
0.0062737279 0.0055000023 0.01116519
0.0081328945 0.0053863726 0.01087952
-0.0061172699 -0.0054309871 0.013666399
-0.0038214135 -0.0055000028 0.013701648
-0.0011949313 -0.0055000028 0.013762688
0.001121066 -0.0055000023 0.01367323
0.0037547583 -0.0055000023 0.013609786
0.0061301575 -0.0054214261 0.013451207
-0.006876308 -0.003918482 0.013589855
0.0067970855 -0.0036222122 0.013727078
-0.0065709054 -0.0013618285 0.014118833
0.0067443796 -0.001337826 0.013818362
-0.0067142276 0.001319406 0.013870591
0.0068558417 0.0012869444 0.013625305
0.007501496 0.0010115841 0.012507
-0.0066923229 0.0038122719 0.013908537
0.0067096543 0.003891865 0.013878513
-0.0064042262 0.0054215412 0.01346345
-0.0037934768 0.0055000018 0.013848023
-0.0015062743 0.0055000023 0.013566443
0.0013244936 0.0055000023 0.013627515
0.0038063636 0.0055000023 0.013931393
0.0061186128 0.0054464312 0.013752437
-0.0054914067 -0.0053610178 0.015952732
-0.0038784195 -0.0054860814 0.016284849
-0.0014283104 -0.0055000028 0.016193226
0.001305451 -0.0055000023 0.016395269
0.0038808549 -0.0055000023 0.016333334
0.0053189737 -0.0054015699 0.015638212
-0.0055500446 -0.0039440864 0.01588702
-0.0047887298 -0.0041007036 0.017205659
0.0048036557 -0.0038879153 0.017179806
0.005582666 -0.0037245075 0.015830517
-0.0055360254 -0.0012787068 0.0159113
-0.0047588912 -0.00087406131 0.017257342
0.0048468807 -0.0015430459 0.017104937
0.0055945753 -0.0011360649 0.015809894
-0.0054841754 0.0012741958 0.016001109
-0.0048329686 0.0011706305 0.017129034
0.004839391 0.0014350385 0.017117912
0.0055133123 0.00094149745 0.015950641
-0.0056035947 0.003746449 0.015794268
-0.0048353737 0.0039845463 0.017124869
0.0048028068 0.0042005572 0.017181275
0.0054975706 0.003688284 0.015977906
-0.0054293936 0.0054261838 0.015833102
-0.0037121312 0.0055000023 0.016096108
-0.0011987609 0.0055000018 0.016186267
0.0014324925 0.0055000023 0.016192587
0.0037297739 0.0055000023 0.016379222
0.0054725367 0.0053811655 0.015717056
-0.003440344 -0.0054323389 0.018419713
-0.0012061545 -0.0055000023 0.01885476
0.0010620779 -0.0055000028 0.018720133
0.0036192611 -0.0054615182 0.018274527
-0.003806388 -0.0038141042 0.018907128
0.0037807655 -0.0039799232 0.018951511
-0.0039755902 -0.0013283805 0.018614059
0.003974501 -0.0011745401 0.018615946
-0.0039694137 0.0010869281 0.018624758
0.0038452595 0.0012221778 0.018839799
-0.0037603572 0.0038868135 0.018986853
0.0038302985 0.0037345754 0.018865712
-0.0033156581 0.0054656491 0.018626651
-0.001324942 0.0055000023 0.018627301
0.0014194956 0.0055000018 0.018956661
0.0036002512 0.0054128636 0.018404711
-0.0027624269 -0.0052911937 0.020462843
-0.001444002 -0.0054685301 0.021177657
0.0012118559 -0.0054674363 0.021026812
0.0027578762 -0.0052054357 0.020633593
-0.0027984048 -0.0036958284 0.020653009
-0.0020649533 -0.003691701 0.021923387
0.0021363334 -0.0039765509 0.021799751
0.0028169332 -0.0037439328 0.020620918
-0.0028246397 -0.001451606 0.020607572
-0.0021199139 -0.0012561639 0.021828193
0.0021412973 -0.0014230565 0.021791156
0.0028170585 -0.0012046599 0.0206207
-0.0028549342 0.0012290946 0.020555098
-0.0021046237 0.0013860612 0.021854676
0.0021458012 0.001327201 0.021783354
0.002863724 0.0012039229 0.020539874
-0.002823567 0.0039235516 0.020609427
-0.0021308099 0.0038960846 0.021809321
0.0020480463 0.0039296602 0.021952672
0.0028216254 0.003696674 0.020612791
-0.0028046034 0.0052523906 0.020625511
-0.0014792994 0.0054509989 0.021259153
0.0012107858 0.0054928837 0.021015242
0.0028463206 0.0052205846 0.020529287
-0.0008810272 -0.0054295734 0.023450188
0.00087821868 -0.0054000732 0.023432866
-0.0010446558 -0.0035682383 0.023690598
0.0010246666 -0.00357937 0.023725221
-0.00094484829 -0.0010939416 0.02386347
0.001118699 -0.0011867301 0.023562351
-0.00095344469 0.0010264777 0.023848584
0.0010224355 0.0011952783 0.023729086
-0.0010185241 0.0036290467 0.02373586
0.00097132352 0.0035436689 0.023817614
-0.0007089079 0.0054138056 0.023708927
0.00075914187 0.00540032 0.023580488
-0.00020517505 -0.0052327537 0.025144625
5.8805821e-05 -0.0053179483 0.025398143
-7.2764029e-05 -0.0037766506 0.025373969
8.6642482e-05 -0.0040196176 0.025349932
-0.00015512924 -0.0012825693 0.025231307
0.00011392022 -0.0013738618 0.025302684
-0.00010533493 0.0012755612 0.025317553
0.00013243282 0.0009906888 0.02527062
-0.00013894189 0.0033668301 0.025259342
0.00018642741 0.0031069233 0.025177097
-0.00010143682 0.0055 0.025203094
